  -0.30470978558713 -0.0978860409617816   0.122663856059213 0.342747942416934 1726147337.08284
  -0.23873563373346 -0.0374550695283421 -0.0756045133384957 0.253206689257295 1726147337.09802
-0.0268447758673682  -0.183662654262048 -0.0788016560214759 0.201648985997145 1726147337.11266
 0.214020380130994 -0.288698999045173 -0.142641247981188 0.386650178826715 1726147337.13009
 0.224089670567315 -0.289396136700175 -0.205983572102722 0.419994686118946 1726147337.15797
-0.00351537335649105    0.151236732622087  -0.0598474175409696 0.1626856494297 1726147337.18166
-0.133968317623283  0.301345125890261  0.112359918654236 0.34839797121197 1726147337.19784
-0.140510263823083  0.189195070841226   0.11612143578049 0.262720568128898 1726147337.21252
 0.191882935243951 0.0125919730584879  0.179770456024278 0.263239502131646 1726147337.22859
 0.239550184596722 0.0435825370448254  0.326930599276473 0.407636290360489 1726147337.25635
0.125737133419708 0.028058541781622 0.210918941014594 0.247151589447113 1726147337.28206
 -0.130972296894988 -0.0191586058364707  -0.088633410564535 0.159300584430339 1726147337.29798
-0.144568643816804 -0.183274928525964 -0.110047957823247 0.258070426865021 1726147337.31269
  0.060393138472851  -0.270778885267615 -0.0295960198550551 0.279006201136523 1726147337.32806
 0.168055019394754 -0.346346774866693 -0.122967683319975 0.404128233541549 1726147337.35062
  0.143222860207973  -0.446409235345877 -0.0817513319949402 0.475896284258651 1726147337.38177
 -0.202398961328415 -0.0494143032008113 -0.0490509615050839 0.214039972276713 1726147337.39803
-0.379225178602295  0.111368434205774 -0.025463157084483 0.396059385183708 1726147337.41346
-0.0308332115837612 -0.0298795048010189 -0.0293115457362171 0.0519869065935784 1726147337.42828
 0.0397054873335139  -0.114655297791775 -0.0141786675525454 0.12216135906938 1726147337.44986
-0.0896654844801109  -0.250592047186552  0.0670397444179557 0.274464206321744 1726147337.48061
 -0.274840285940462   0.072687246820991 -0.0138408761219314 0.284626401582975 1726147337.49801
-0.185226335199275  0.179521719198704  0.091633725453094 0.27373999078656 1726147337.51246
0.0680047920587161 0.0053343509677989 0.0418393077786931 0.0800227137667618 1726147337.52833
0.0481882759895629 0.0100326122365926 0.0258996466853738 0.055619735252546 1726147337.54657
0.0390169849149364 -0.189317619519147  0.113998621256574 0.22440849320079 1726147337.57952
-0.157314188672874 0.0217637091152525 0.0380121422041957 0.163298303565009 1726147337.59795
-0.0692569768342874 0.00978324836206724   -0.15108600166431 0.166490902717376 1726147337.61246
 0.0851467882028031 -0.0759957479214237  -0.137923034893869 0.179019811187827 1726147337.62811
 0.0969273917642727 0.00909606166878709  -0.106764154346295 0.144486131740686 1726147337.64632
 -0.012362389837336 -0.0403175607133696 -0.0526790578090612 0.0674790153752774 1726147337.67796
 -0.193400475733431  0.0927103440208848 -0.0866370333175851 0.231311321479214 1726147337.69853
-0.230627176429161 0.0680203451882534 -0.115820690506421 0.266889666747517 1726147337.71237
-0.102941398253231 0.0552882969467907 -0.111869205231332 0.161766641594294 1726147337.72795
-0.0322077227855387   0.125164928873843  -0.180941434987629 0.222358718566209 1726147337.74447
-0.111158668746978 0.0963102199395076  -0.19471462204472 0.244019860135225 1726147337.77679
 -0.201538058401521   0.183366115565751 -0.0507568596123288 0.277158763382349 1726147337.79794
-0.0561692947992993 -0.0141325833491089  0.0250859491958185 0.063119128934304 1726147337.81342
  0.135602679157771 -0.0865257395474944   0.128280411829101 0.205744147566948 1726147337.82791
  0.312495955327835  0.0281576679148513 -0.0052834866969735 0.313806455622469 1726147337.84466
  0.335387798098396 -0.0375496459026633 -0.0642181126084683 0.343538814412141 1726147337.87564
  0.117508116351169   0.130756343733873 -0.0598323671998934 0.185702156691282 1726147337.89806
0.00171619112125438 -0.0122634453859432   -0.14306436164841 0.143599265243823 1726147337.9129
  0.101648141815489 -0.0820902690253992 -0.0760017942913864 0.151153662670523 1726147337.92775
   0.29802657503536  -0.102946071039765 -0.0228628332398353 0.316133582704502 1726147337.94394
  0.352927929917179 -0.0669686574835543 -0.0764133207315548 0.367262740263695 1726147337.97259
 0.014932301076255 0.0844495251010172 -0.129814353433204 0.155584260972953 1726147337.998
-0.107731395625441 0.0500872039944818 -0.113835805513394 0.164539880345992 1726147338.01387
-0.0756131416746096 -0.0835437621383537  -0.123788530044637 0.167393272137044 1726147338.02839
  0.196731883629588  0.0445441983346268 -0.0741795421403044 0.21491911062971 1726147338.04409
 0.206613170363556 0.0545307367354797 -0.181473127942249 0.280348175634759 1726147338.06976
-0.0493479234694805   0.166157113396387   -0.21126064483728 0.273266287602465 1726147338.09684
   -0.16780409136303 -0.00862185179347439  -0.0847931471347202 0.1882084674172 1726147338.11386
  -0.11639709899903  -0.071570650644927 -0.0601278802056231 0.149284978035802 1726147338.12826
  0.104501521703867 -0.0523131766576966  -0.142896605999686 0.184598690398043 1726147338.14393
  0.103535481366753 -0.0323142704520223  -0.233906358801939 0.257829386736022 1726147338.16641
0.0646758999469006 -0.088789172329785 -0.297626744844381 0.317250954929393 1726147338.19791
-0.161429535669154  0.109824675353328 -0.121138354002356 0.229772616108236 1726147338.21406
 -0.165375817625827  0.0209148082270722 -0.0753909396745168 0.182949129660659 1726147338.22886
   0.161193831927665 -0.00626422332214577   -0.109453133514542 0.19494276180845 1726147338.24544
 0.241984727914053 0.0297934400931416 -0.218557361763421 0.327431791366093 1726147338.26668
  0.190209437749602 -0.0600413761418204  -0.275716508963649 0.340300147477378 1726147338.29788
-0.0783832055378544   0.046639186340287  -0.144041262119246 0.1704905446228 1726147338.31441
 -0.167917555690581  0.0758534583470232 -0.0812040165474462 0.201355767128088 1726147338.32997
   0.215415119670699 -0.00380862897951195  -0.0886263694926085 0.232965260944385 1726147338.34471
 0.355712434798304 0.0768700045212825 -0.189284372417291 0.41020593304662 1726147338.36427
 0.433618832326448  0.060058401880565 -0.255849574607547 0.507041722357699 1726147338.39801
-0.0327654292110715   0.149679311706635  -0.145476421635422 0.211283835056553 1726147338.41563
 -0.137317722672831   0.128852978233432 -0.0780952366889963 0.203858070610875 1726147338.42996
0.0929031556759216 0.0603866412016428 -0.153954502888427 0.189682713313004 1726147338.44576
 0.309485328290974 0.0683995206727766 -0.181843736954711 0.365413201082408 1726147338.46349
   0.37412450095101 -0.0221558052722285  -0.307832253529916 0.48499558578652 1726147338.49782
-0.00879532060582102   0.0473255099661289    -0.18991775742769 0.195922985237762 1726147338.51579
-0.0984412076096211 -0.0871510083544572  -0.321182308292999 0.347050493117729 1726147338.53067
 0.0857717574352644 -0.0431820108153568  -0.207454986978371 0.228602388556611 1726147338.54595
   0.15572875748652 -0.0201986581652262  -0.175220321204229 0.235290443203467 1726147338.56438
 0.112974905489882 -0.144070579473832 -0.275324927840976 0.330641009300135 1726147338.59771
 -0.044322337451398 -0.0545765889564338  -0.178023206074452 0.191403593383985 1726147338.6161
-0.0841462113919497 -0.0773941176974577  -0.152872285715162 0.190893609336627 1726147338.6321
-0.0218660178134383  -0.164692555028491 -0.0872842533702073 0.187670725749182 1726147338.64673
  0.16863924214602  -0.26186074253145 -0.165964183346303 0.352922587297146 1726147338.66438
0.0293574216436001 -0.527201851493584 -0.332986285549683 0.624246359050654 1726147338.698
-0.111673589275985 -0.259587065139915  -0.20260237837678 0.347712753078836 1726147338.71765
-0.150056812091526 -0.374011323013243 -0.284839121872778 0.493492494316219 1726147338.73436
-0.123761331174621  -0.49123286600046 -0.283125854227945 0.580333391306621 1726147338.74833
 0.019721267177303 -0.532628657399795 -0.423232312794906 0.680593715557462 1726147338.76619
-0.130622087230239 -0.867103035633522 -0.674606757609167 1.10635621817261 1726147338.79762
-0.146325392649932 -0.535584860074369 -0.439097395581455 0.707862123355569 1726147338.81805
-0.189478353511353 -0.380535312895144  -0.17901499158414 0.461254309488213 1726147338.83391
-0.0561446085973302  -0.375923418539715  -0.139926821361955 0.40503104697985 1726147338.84942
 0.106992709620371  -0.43375364629997 -0.427413350298003 0.618281357962046 1726147338.86602
-0.000350628089930777    -0.679234875463348    -0.670446869432483 0.954389408846087 1726147338.89789
-0.0452639005538307   -0.27784535994337  -0.324084667691469 0.429275828073394 1726147338.91977
0.0255328195132484 -0.146784856025113 -0.056352356434825 0.159290008808986 1726147338.93582
0.00751562881815207  -0.112552569282293   0.109495884144258 0.15720659710429 1726147338.9502
 0.381642782686846 -0.161420201760674 -0.123432141960015 0.432369273633376 1726147338.96803
 0.270253549157913 -0.230870660956577 -0.231093594034106 0.423960484156927 1726147338.99782
  0.098018989638286 -0.0903554314054712  -0.177051287726349 0.221628032522372 1726147339.01983
0.0735185233519542 -0.104778754410002 -0.164199407344813 0.208194634954773 1726147339.03592
0.00206896028971936 -0.0825614360498246 -0.0436766522987526 0.0934254851489455 1726147339.05063
  0.351590893223632 -0.0634266790379525  -0.231849105262107 0.425902697129772 1726147339.0679
  0.342120538264368 -0.0529198317787283  -0.490087548648393 0.600027313243306 1726147339.0978
-0.0477150276195204 -0.0656241269704279  -0.336973687282282 0.346604263998555 1726147339.12068
0.00587121488923402  -0.357757104313409  -0.334398576294502 0.489741793886105 1726147339.13766
-0.0338588762692053  -0.304836833843147   -0.14090719427204 0.337530378140022 1726147339.15258
  0.304147268031048 -0.0722996392237571  -0.357240382100134 0.474714113004539 1726147339.16982
 0.292797291307731 0.0144389165143851 -0.601851744416231 0.669450713917099 1726147339.19756
 0.151019021130384  -0.13850107221759 -0.416600468675129 0.464268502322674 1726147339.22209
-0.0405021680287156  -0.175469437993019  -0.118211565469229 0.215415699277695 1726147339.2383
-0.247435787851707 -0.113033666795128  0.190963438398804 0.332367437851605 1726147339.25401
  0.234697032444922 -0.0893398329485153  -0.209581133309766 0.327091048836753 1726147339.27055
 0.211885888147898 -0.144277717930448 -0.515600671146978 0.57580877170694 1726147339.29773
-6.77267561833613e-05    -0.116133870783174     -0.49863945386739 0.511984751221328 1726147339.32383
-0.0456819794499874  -0.129749667910843  -0.270378496363865 0.303358452767395 1726147339.3401
 -0.138293028232769 -0.0847402905289229 -0.0258329780403616 0.164235261899354 1726147339.35584
 0.165110493144604 0.0731278200175022 -0.323163864774229 0.370194592751951 1726147339.37225
 0.197971809522393  0.270693075673386 -0.681192749112732 0.759270136398666 1726147339.3971
 0.254827990836388  0.388125087202692 -0.455971825389383 0.65076008926388 1726147339.42469
 0.0657045015039967   0.230700160705654 -0.0546621173042352 0.246023561342578 1726147339.44085
-0.0710508633485334   0.184979846503536   0.425691825173924 0.469552232254252 1726147339.45631
0.405888437108948 0.225297925383322 0.384589627923245 0.602838088102364 1726147339.47318
0.628805755502757 0.283936454433915 0.193640306397926 0.716598323031654 1726147339.49653
 0.214834317275976  0.263307778254893 -0.083990229132124 0.350055893477927 1726147339.52615
-0.0159599307934464   -0.10094296014108  -0.272630910915448 0.291155996296766 1726147339.54266
-0.262803718868231 -0.251711282568397 -0.104033634481918 0.378480331756773 1726147339.55787
 0.181079000916867 -0.199057816504136 -0.381461818505554 0.466826239474613 1726147339.57383
 0.224206242941361 -0.225583818599393 -0.717340286657121 0.784686934674642 1726147339.59785
0.0525119714299914 -0.165202402567857 -0.805523884253406 0.823964846980957 1726147339.62781
-0.0453372817757421 0.00409539228929072  -0.339103580291426 0.342145406988432 1726147339.64403
-0.0815690531002887  0.0426995914335686  -0.029494582819485 0.09667831167313 1726147339.66015
 0.115802438723292  0.138320326366755 -0.176582060319329 0.252436014718753 1726147339.67512
 0.146001762057785  0.196653868386886 -0.548754669815998 0.600933395743962 1726147339.69785
-0.113231752961681  0.100726710171713 -0.532861174865175 0.553993079107931 1726147339.72966
 -0.395568281260117 -0.0176616463217053  -0.158410738536601 0.426474103520468 1726147339.74446
-0.748293515133295 -0.067763386895774  0.231946408522758 0.786342290494881 1726147339.76003
 -0.324532507145406 -0.0926188091350594   -0.02250166988083 0.33823943759873 1726147339.77584
-0.146518090608366 -0.130935511010132 -0.544476349498931 0.578848990741702 1726147339.79777
-0.216162695319534 -0.305937895975476 -0.897970905897516 0.972972792466528 1726147339.83059
-0.257726098884306 -0.225268283231607 -0.453471237665476 0.568159048916848 1726147339.84653
 -0.331494471158319  -0.129719900242924 0.00191241886414489 0.355976817044986 1726147339.86215
-0.0439884580306341 -0.0203532230487653  -0.252127696499947 0.256744256938213 1726147339.87625
-0.0283532686055995  0.0128590899423837  -0.656758368741982 0.657495869909003 1726147339.89683
0.0494831577938294 0.0816597326758644  -0.93393311558502 0.93880134172906 1726147339.93179
-0.129800592492441  0.148288177206477 -0.358829953990665 0.409385531243534 1726147339.94784
-0.34649929415471 0.181251545889571 0.273118907310022 0.476977799553913 1726147339.96236
0.00975430090703916   0.316359523041876   0.134846231177887 0.344037789012121 1726147339.97691
 0.188371514883455  0.428362623483817 -0.108878779477563 0.480450781493744 1726147339.99681
 0.230033647628789  0.441996529782317 -0.439766803633352 0.664583518422562 1726147340.03231
-0.0635098564367434 -0.0897007139347926  -0.267581145271564 0.289273900049537 1726147340.04856
-0.315209298469957 -0.237809797561599  -0.08867712548875 0.404690047126389 1726147340.06383
-0.0993654547073899   -0.15864446330639  -0.101780354064335 0.213074634343087 1726147340.07818
0.00973278874668456  0.0209617741425074  -0.320443630397601 0.321275961463636 1726147340.09708
-0.0295533413082857 -0.0923560329455934  -0.648734952164846 0.655942127755381 1726147340.13349
-0.0695534464022377 -0.0422070082172177  -0.305256160796276 0.315912071869942 1726147340.15021
  -0.37917414510555 -0.0357150963785929   0.144116225260524 0.407207670371272 1726147340.16472
 -0.273475668292244 -0.0190585545835537   0.189111317297664 0.333039427066468 1726147340.17959
-0.0041598790443325 -0.0674433724876861 -0.0498622010353947 0.0839770931758796 1726147340.19799
0.00362456743141495  -0.106906317633259  -0.168172253010521 0.19930881797252 1726147340.23401
    -0.101646658372   0.026764985428638 -0.0637832750191979 0.122950045853444 1726147340.25184
-0.102574920060196 0.0432290065429365   0.14149714359733 0.180032782787603 1726147340.26562
-0.0293428661813186 -0.0253327608183481   0.212601211252233 0.216106519087997 1726147340.28004
  0.171315759652597 0.00676846368675963    0.12340146296425 0.211241148140562 1726147340.298
 0.115634183587403 -0.112784770332213  0.187910918862045 0.247794637271256 1726147340.33367
  -0.07395517763976 -0.0478744912336765  0.0344706425921397 0.0946021163152647 1726147340.35212
 -0.276297281684781 -0.0375214025052456 0.00840986588349268 0.278960157292288 1726147340.36673
 -0.27629089760609 -0.144918170199758 0.0196098577331171 0.312605954316833 1726147340.38077
-0.0706896144451928  -0.121168885152988  0.0183693222327756 0.14147915860267 1726147340.39799
-0.135612580631767 -0.305179094270072 0.0566884179636416 0.338730908445524 1726147340.43406
 -0.250197168307096 -0.0768317505081152  0.0475702704302867 0.266016299395058 1726147340.45385
   -0.14512656181511 0.000118873605305114  -0.0694664216591879 0.160895359825388 1726147340.46795
-0.0576816052212361 0.00428729056295387  0.0507058374454532 0.0769196359346198 1726147340.48218
  0.0622516141249723 -0.00687161457199674     0.06059883207612 0.087147581704717 1726147340.49802
0.0388929332246733 -0.142344337837756  0.196060713136829 0.245386173214812 1726147340.5324
 -0.142822358896395 -0.0277082218564112   0.150669829850148 0.209445385211151 1726147340.55375
 -0.116888355679288 -0.0410236301293258  0.0208987023143533 0.125628745439964 1726147340.56797
 -0.110428618298559 -0.0554044652429613  0.0867307434195272 0.150951503345582 1726147340.58206
  0.147810375179358 0.00161822240625978  0.0533002865573582 0.157135120840362 1726147340.59774
  0.230392985410747 -0.0313649263245815   0.103257678643891 0.254414690080483 1726147340.63055
-0.0322486594460945  -0.066407337941044  0.0830421788587091 0.111112168721918 1726147340.65405
 -0.175747660273543 -0.0692049648024676   0.126851989675939 0.227525810688985 1726147340.66866
-0.174969841596568  -0.13094900835873  0.135983687512387 0.257397846781843 1726147340.68269
  0.132756094113315 -0.0481823971264529 -0.0348310182241578 0.145461072963203 1726147340.69801
 0.249943474261424 0.0389079621063389  -0.13667453037321 0.287516081452632 1726147340.72695
   0.141153258208596    0.017134776314018 -0.00701902221418921 0.142362598792932 1726147340.75281
 -0.231060752698934 -0.0343976787642661  0.0827749413526116 0.247838581859435 1726147340.76766
  -0.24764281041192 -0.0975955544554896   0.112133583336526 0.288835237306805 1726147340.78237
0.0352379500460929 0.0438815822529595  0.108502043271924 0.122229291819337 1726147340.79805
   0.174006691603684   0.0958178807127735 0.000373613828112493 0.198644241231503 1726147340.81822
   0.33314619646572    0.10134785112248 -0.0287290946063834 0.349403972535549 1726147340.8524
-0.0892713093461203 -0.0200037065527002  -0.011977618912801 0.0922658024570184 1726147340.86814
 -0.329794867415593 -0.0830245138356537  0.0371894275312706 0.342112230110849 1726147340.88236
0.00452647149100303 -0.0707692021130311 -0.0312833657739054 0.0775075343822642 1726147340.89795
 0.167081978884504  0.014936129366603 -0.107641540935666 0.199314266833617 1726147340.91863
 0.256519783039037 0.0672285419590551 -0.101479403665274 0.283936868533473 1726147340.9536
-0.0582975009500022  0.0307349513197424  -0.022928002343713 0.0697777123522672 1726147340.96877
 -0.395096845348062 -0.0570171769423021   0.076274273058782 0.406411417655934 1726147340.98354
-0.0880111196959231  0.0353429185846045  0.0929244357038908 0.132778122577082 1726147340.99803
0.0815561987576142  0.138296095529609 0.0154657262284353 0.16129603926414 1726147341.01865
  0.256974045107481  0.0906855423228669 -0.0827142608430726 0.284782682746178 1726147341.05267
-0.0270695321849835  0.0093098861062908 -0.0736166940692699 0.0789863988146975 1726147341.06978
 -0.164774272511807  0.0321612978499902 -0.0679422515859558 0.181110627826642 1726147341.08363
-0.0286426331551541  0.0596011891066703 -0.0801606235362717 0.103915483652407 1726147341.09801
  0.228739150816055  0.0615988315786622 -0.0490210555605578 0.24190717032816 1726147341.11592
   0.248967249668148 0.000666560927815304  -0.0180384693988405 0.249620756526867 1726147341.14997
-0.0257360040761398 -0.0423129481164474 -0.0469016203181079 0.0682091597410217 1726147341.16868
  -0.257128215750798 -0.00771631295975954  -0.0487599191478023 0.261824350540934 1726147341.18305
   -0.19247686135642  0.00127830049198456 -0.00612186721960639 0.192578434587107 1726147341.19799
  0.0750576821554967   0.0533342171779512 -0.00689822980261822 0.092335150116032 1726147341.21455
  0.222183583524421  0.0114891360882096 -0.0627795689301546 0.231168378700165 1726147341.24896
 -0.055717781993373  -0.022530116426084 -0.0199628933740154 0.063329254600826 1726147341.26957
 -0.0784352191294049 0.000360069578046726     0.02463511880234 0.0822137599698749 1726147341.2838
 -0.0937799173140486   0.0673126107618574 -0.00182390890654719 0.115451232573353 1726147341.29795
 0.161614101427419 0.0811343684808271 0.0291137260100698 0.183165260273787 1726147341.31375
   0.326671677402274   0.0940317448881044 -0.00239576292602568 0.339944250640476 1726147341.34765
-0.0178175368849297  -0.057315575043529 0.00179724134059117 0.0600480627468744 1726147341.36879
 -0.118197824729991 -0.0641442308197333 -0.0273200130269032 0.137228245015911 1726147341.38381
-0.227077065230229 -0.019207389335049 0.0712390660317966 0.238763317718038 1726147341.3984
 0.132780929080391 0.0389470615915231 0.0342269554682959 0.142545197094446 1726147341.41247
 0.0891142379074549  0.0712285362584551 0.00651323865274898 0.114268429818109 1726147341.44577
-0.0770592559873547 -0.0432583609730461 -0.0409875986072908 0.0974135409837431 1726147341.4685
 -0.057595241332496 -0.0428310669540225 -0.0621990819023594 0.0949759859652156 1726147341.48395
  -0.10099362003048 -0.0784134258616541  0.0189133585503991 0.129252047464936 1726147341.49803
 0.104582234896118 0.0354793635927423 0.0437758721144999 0.118796279723727 1726147341.51263
 0.133432993693516   0.11570627345067 0.0510093015061691 0.183832136369032 1726147341.53982
-0.00309005947136869   0.0438824268602064 0.000725452291150664 0.0439970696263364 1726147341.5682
-0.0942180504733854 -0.0967453618719848 -0.0539062222140878 0.145404906630214 1726147341.58389
-0.211065672051417 -0.153866984380254 0.0118579113988968 0.261465823509562 1726147341.59791
 0.108101667708593 0.0547886830767296  0.105661640456459 0.160786046094216 1726147341.61222
 0.169467342168893 0.0749564306561849 0.0286190316946752 0.187501188085956 1726147341.63392
  0.156942588037871 -0.0234198469241099  -0.082378291816736 0.178789396029566 1726147341.66676
 -0.176694265210728  -0.053056479411908 -0.0122555029826857 0.184894701706955 1726147341.68352
 -0.230243860193228 -0.0514777516902855  0.0993126497550641 0.255978898499735 1726147341.69785
   0.063281876289976 -0.00719737182156725   0.0521133925407156 0.0822934001607688 1726147341.71207
  0.138960939600462  0.0873681211692489 -0.0654548195359523 0.176713510326098 1726147341.73073
 0.192792634059591 0.0753914157268961 -0.071979876025287 0.219166529984751 1726147341.76585
-0.0543391531552497  -0.043971602646848 -0.0168847533485404 0.0719120316817918 1726147341.78366
  -0.23633323444588 -0.0189589930469338  0.0379053500645622 0.240103429139448 1726147341.79788
  0.0198856363010233 -0.00870755379681331   0.0454966971987734 0.0504104104349276 1726147341.81206
 0.148157099599261  0.070032592505275 0.0056769861751773 0.163973529408586 1726147341.83029
  0.201102998535227  0.0294761757232642 0.00723082417265549 0.203380298390341 1726147341.86434
  -0.106241398565591 -0.00362051040804047  -0.0112633050595492 0.106898105248184 1726147341.88264
 -0.0720398597468761 -0.00558732392523687  -0.0496665283356012 0.0876796647912513 1726147341.89807
0.0148961569005057 0.0112470228353002 0.0325320111646865 0.0375063029833858 1726147341.91184
 0.119840071141252 0.0356952945053769 -0.011110379321139 0.125535800589415 1726147341.92797
    0.20394945722125 0.000406636931571543  -0.0363888844573714 0.207170696206024 1726147341.964
  -0.109350060884001  -0.0540014492235532 -0.00580745459265688 0.122095531705401 1726147341.98344
-0.0539057504652204 -0.0384777259182012 -0.0816453464789239 0.10513005244324 1726147341.99785
 0.0101194369149217 -0.0500464607135582 -0.0387920180379618 0.064123879303161 1726147342.012
   0.145023408628624   0.0998825696068606 -0.00668713714030157 0.176218712299992 1726147342.02789
0.0942155363721502  0.129592587243349 0.0472548552535439 0.167044387236897 1726147342.06171
  -0.110617789946618 -0.00213151324831815   0.0504795373382591 0.121610124953831 1726147342.08305
 -0.105672538841969 -0.0797677215729104 0.00532257387041911 0.132506243863626 1726147342.09785
-0.0660845377266957  -0.118160590478471   0.062308916989605 0.149035205254294 1726147342.11215
   0.247172224343705 -0.00071537927509638  -0.0490423699435162 0.251991615543452 1726147342.12631
  0.257577513774331  0.0500307613240155 -0.0743951375929185 0.27273409977173 1726147342.15929
  -0.0130455197689744   0.00535358407269364 -0.000931848586287353 0.0141320483389304 1726147342.18343
-0.138776475891078  -0.05976546465378  0.055791817843904 0.161070009512499 1726147342.19807
-0.122790859377856 -0.120389865927414  0.127034267817049 0.213796679498506 1726147342.21184
  0.173963950138742 -0.0169683377285732 -0.0676106326661162 0.18741018670995 1726147342.22661
  0.147237250358768  0.0799681248629738 -0.0499361819155067 0.174835154221367 1726147342.2525
 0.0552479731876797 0.00327972795285359  -0.034438974266785 0.0651854132865596 1726147342.28226
  -0.155346868042767  -0.0372919943594388 -0.00595081492881314 0.159871055705272 1726147342.29795
 -0.259027613583365 -0.0678409109552498   0.121850748802009 0.294185823556373 1726147342.31197
0.0317415616406476 0.0727082918912879 0.0560058609372992 0.0971116826363536 1726147342.32571
 0.0943883205615489   0.135084720239701 -0.0190021780600459 0.165885862784307 1726147342.34456
  0.159029912538516  0.0737227891064945 -0.0554530494958061 0.183849404171003 1726147342.37977
 -0.107897055361119 -0.0595726096160675 0.00191040109428819 0.123265242483069 1726147342.39638
 -0.176138216562133 -0.0536167756153952  0.0903366053455017 0.205085670456104 1726147342.41032
 0.0247730271716647 -0.0162601006182558   0.071366090293764 0.0772736215741279 1726147342.4258
 0.0881558566346975 0.00549816253529626 -0.0573155043064361 0.105293645981906 1726147342.44576
  0.142625977923359 -0.0746733123906894 -0.0718446386848208 0.176294995021822 1726147342.48039
 -0.134823035306585 -0.0341366258891963 -0.0151905746767315 0.139904659091071 1726147342.49779
 -0.232945357794744 -0.0653497575894657  0.0868814085734488 0.257065185684156 1726147342.51211
  0.038242327682891 -0.0412701644945313  0.0148340205136412 0.058187200212851 1726147342.52592
 0.124272753586198 0.0509044266170546 0.0319596106964869 0.138044900843813 1726147342.54388
  0.177576016018879  0.0507626797529067 0.00373619863327467 0.184726961489276 1726147342.57956
 -0.0761803903384571  -0.0452675421074349 -0.00567893452603162 0.0887966921564032 1726147342.59801
-0.215770463696811 0.0110357099823908 0.0839792469621169 0.231799900386252 1726147342.61216
 -0.139560805789347 -0.0451528756500517  0.0307367110228147 0.14986909653608 1726147342.62647
  0.103162150928597 -0.0127034590182024  -0.054185630818096 0.117217276211303 1726147342.64352
    0.2009392573173  0.0110656627081394 -0.0683653054106651 0.212539052896854 1726147342.67767
 0.00289385991344632 -0.00477268176636636  -0.0144468672747221 0.0154875721304242 1726147342.69797
  -0.152469888447467 -0.00814201751922177   0.0671675705908856 0.166807799192808 1726147342.71207
 -0.138196617391239 -0.0885513333513099  0.0839604158127758 0.184361045560416 1726147342.72593
 0.118684479433064 0.0285707632191079 0.0176848932495417 0.123349299221631 1726147342.74228
   0.167861284192913 -0.00402920217385802  -0.0607991247938085 0.178578214731654 1726147342.77685
 -0.124695270949085 -0.0260171258062778 0.00529803699843535 0.127490668789218 1726147342.79806
 -0.0607237417866251 -0.00778639554278808   -0.089261528241742 0.108238723182458 1726147342.81239
-0.0662698984753185 -0.0965396001203759  0.0458241966968624 0.125743591638874 1726147342.82687
   0.133370123685888   0.0141097513852872 -0.00619511221048498 0.134257418385146 1726147342.84211
 0.226270057867123 0.0317409864326058 0.0044586356344018 0.228529010715547 1726147342.8737
-0.000736370509858136    0.0435984023129026 -0.000700457327765334 0.0436102461152597 1726147342.89798
 -0.104169584575145 -0.0530433815553274 -0.0243299746289345 0.119402053344266 1726147342.91239
-0.155664271470536 -0.145101454235042 0.0696475312111477 0.223911982790972 1726147342.92625
  0.130995643631058 -0.0130031557576266   0.047308874423398 0.139882344522749 1726147342.94182
 0.0552796307890705  0.0760370861775883 -0.0214105558208516 0.0964151852931464 1726147342.96584
  0.042719883653746   0.113135567618123 -0.0400814410271183 0.127401597456527 1726147342.99789
-0.0618629556791772 -0.0894241340168402 -0.0355295254905855 0.114394266515467 1726147343.01242
 -0.185506580929601  -0.150118520140849 0.00893741311410268 0.238805651127944 1726147343.0267
 0.0280505402466992 -0.0379986967289931  0.0310353785751585 0.0565148518934367 1726147343.04194
 0.0414844044992415  0.0843411295711238 -0.0264186847014346 0.0976336461233708 1726147343.06562
 0.0535136694117376  0.0993383642606327 -0.0352090078112175 0.118201089922798 1726147343.09781
-0.00259703229740353  -0.0295351770249925   -0.073890711340414 0.0796172624563529 1726147343.11282
  -0.188306822119328   -0.139709715903251 0.000993192111502264 0.234476545532848 1726147343.12691
-0.00357729459956257  -0.0108371607131612    0.114891280107683 0.115456690294487 1726147343.14206
0.0663263523533868 0.0651460787483321 0.0552859844354925 0.108165321003504 1726147343.1623
 0.101997603161644  0.126484230055582 -0.073433601473226 0.178309465056688 1726147343.19802
-0.0685000221005038 -0.0467746117131546 -0.0433516668952791 0.0935921169291791 1726147343.21495
 -0.127631587292283 -0.0394801052648626 -0.0383887256329045 0.139004298646447 1726147343.22814
 0.0461413344325097 -0.0168933725203724  0.0959737622544627 0.107821017522563 1726147343.24252
 0.0152698312819239 -0.0115467458463506  0.0657639180324024 0.0684937077547359 1726147343.26206
  0.111820405175776 -0.0214029503795295 0.00790678896850523 0.114124522388555 1726147343.29758
-0.000100312923481284   -0.0275937604015227   -0.0623637400424971 0.0681957604830932 1726147343.31413
 -0.176934635419232 -0.0408859872977441 -0.0208235434687256 0.182787168944764 1726147343.32872
-0.00391042472422434   -0.073175154267425   0.0433427899524852 0.0851380764667051 1726147343.3437
0.0825417387679738 0.0572247419900374 0.0387557060046345 0.1076560006808 1726147343.36403
 0.174626268930362 0.0688965935112089 0.0409000508767007 0.192129874198951 1726147343.3969
 -0.113259141362965 -0.0321850427566656 0.00262458602740364 0.117772656127557 1726147343.41476
 -0.227058327467266  0.0281341563226949 -0.0420786616889736 0.232631959527828 1726147343.42985
  0.0365335537010655 -0.00675434176171819  -0.0175946805169407 0.0411083259347293 1726147343.44394
0.0760505455635554 0.0215697050682779 0.0431923081845037 0.0900805924911245 1726147343.46167
  0.218228590675938  0.0317233831819441 0.00712772324969965 0.220637474758118 1726147343.49826
 -0.0589471350760891  -0.0247160963079784 -0.00360768087076522 0.0640208209229563 1726147343.51603
 -0.123097789930545 0.00163543453259427 -0.0898927595930791 0.152435064073703 1726147343.53021
-0.0698312905499666 -0.0514679297170313 0.00463341627204937 0.086872466729 1726147343.54561
0.0959275833886212 0.0369390890625191 0.0330188807191483 0.107966865470361 1726147343.56357
 0.180533398869756 0.0227115519677123  0.068851631625914 0.194547346108342 1726147343.5979
 -0.083562431007009 0.00620166448816141   0.018115427805614 0.0857281123249852 1726147343.61666
-0.0362403516122566 -0.0325840956009087 -0.0434721941439614 0.0653063399280607 1726147343.63189
 0.0680576839428046 -0.0196510284615199 -0.0802416969851517 0.107036167711251 1726147343.64579
  0.130255366509685  0.0274967094739667 -0.0149321820148987 0.133960813659048 1726147343.66225
   0.17615742821175 -0.0233467766288495 -0.0418940227676799 0.182569495362161 1726147343.6969
-0.0677999059566517 0.00555905410398392  0.0185753020036154 0.0705178854957191 1726147343.71773
-0.0554750994566484  0.0674853605484892 -0.0450319576712863 0.0982834561856325 1726147343.73234
-0.0204522779163719 -0.0815647195850946 -0.0174864730826937 0.0858887413683272 1726147343.74638
  0.173141457936863 -0.0565191516294602 -0.0432213284740346 0.187190977860785 1726147343.76473
  0.242428668066885  0.0114692893859104 -0.0138829103674965 0.243096562912711 1726147343.79653
-0.0616179195960978  0.0174145926238236  0.0299187326428888 0.0706764926588859 1726147343.81834
  -0.19088762687178 -0.0306918935992196   0.075159453166821 0.207434379565638 1726147343.83279
 -0.133374329693623 -0.0625701435523287  0.0536259602054825 0.156778436952734 1726147343.84776
  0.169303511558515   0.044035202670728 -0.0326040145489263 0.177948868681436 1726147343.86375
 0.217544292236539 0.0753610999939413 -0.074641122954488 0.242025022906518 1726147343.89776
-0.0323447754945801  0.0301538152772475 -0.0236007396698791 0.0501241657340504 1726147343.91976
 -0.146378148305344 -0.0258300261504859 -0.0138881084895043 0.149287079513441 1726147343.93431
-0.0851049882403798 -0.0356199077731647  0.0825192319424025 0.123778271491922 1726147343.94857
  0.189398523135169 -0.0320219354656817  0.0210066418796765 0.193231684564961 1726147343.9647
  0.290511511865831 0.00926190098518414 -0.0164388910090961 0.291123613734851 1726147343.99675
-0.0339294675132615  0.0444384673941494 -0.0324684153256181 0.0646543435805451 1726147344.02028
 -0.133000988824429 -0.0909861404209673 0.00173586580149473 0.161154441474818 1726147344.03562
-0.199330151635332 -0.160311944229368   0.12815020748576 0.286102961348197 1726147344.04972
  0.147400914357286 0.00123877994992607  0.0616237238329085 0.159768731196573 1726147344.06454
  0.202643997307258  0.0568926112048959 -0.0139400843883064 0.210940002861308 1726147344.09792
-0.0955338786695015  0.0381112118237928 -0.0618074125210728 0.119997261147357 1726147344.12217
-0.0814630184289922  -0.110000572331916 -0.0937386218861979 0.165901412043524 1726147344.13685
 -0.117107001895168   -0.10132167439962 -0.0339660999389313 0.158536518004777 1726147344.152
   0.180563872444261    0.021487081675365 -0.00869912479785067 0.182045822482252 1726147344.16619
 0.260748690863766 0.0678788884331567 0.0816237371752872 0.281531273134175 1726147344.19798
  -0.023725755541448    0.033501964554529 0.000413531268363466 0.0410544043086169 1726147344.22382
 -0.179666104092874 -0.0920803340575874 -0.0438890687042304 0.20660335726167 1726147344.23827
 -0.205164647612628 -0.0897934090032393 -0.0617916440938892 0.232322181916111 1726147344.25273
  0.141043912156628 0.00842041674384021  0.0244943347181782 0.143402444218614 1726147344.26811
 0.192433181575072 0.0197145815097809  0.077745635729204 0.20847920272811 1726147344.29757
 -0.0821165490337906   0.0379419062788167 -0.00378682763623216 0.0905375940747046 1726147344.32593
-0.0272557872021615 -0.0450581862116887 -0.0626921431006427 0.0818744336606256 1726147344.3407
 -0.134771498659476 -0.0525515335770056 -0.0361712756570887 0.14910862387829 1726147344.35567
  0.145476753085864 0.00439591343757482 -0.0443957315378632 0.152163697122993 1726147344.37005
   0.176939120605592   0.0558916579252628 -0.00514581222135633 0.185628147676295 1726147344.39707
 0.069000322700039  0.036997296430924 0.0169584617380151 0.0801088877742469 1726147344.42745
-0.0938299449531907 -0.0386598969020044 -0.0213699460806159 0.10370786273895 1726147344.44206
-0.200099016992971 -0.151667392051568 0.0778659211315963 0.262879660846839 1726147344.45623
 0.0798855098053109 -0.0240273735427828  0.0834545082164748 0.117998577524784 1726147344.47206
 0.137961887360559 0.0415254679487239 0.0236927569340259 0.146010936520463 1726147344.49653
-0.0552365579574797  0.0554232962908196 -0.0315902015907312 0.0843845954145247 1726147344.52862
-0.0775970775784086  -0.060725026193201 -0.0269679400846126 0.102157256459254 1726147344.54408
-0.142247232758608 -0.120583727592269 0.0104549261654489 0.186772632011901 1726147344.55808
  0.103127535228084 0.00989421702577942 -0.0327700362472579 0.108660293246519 1726147344.57297
   0.13436879436947  0.0742475040817763 -0.0524063420947561 0.162216181234891 1726147344.59755
    0.071714616058718    0.0697822674457032 -0.000990858621099275 0.100067641158968 1726147344.62992
-0.0860601728643156 -0.0287920741365535 -0.0356506658475713 0.09750029159903 1726147344.64558
-0.186755939538744 -0.137472782390498 0.0731117981097135 0.243149916459002 1726147344.65883
  0.061880347641416 -0.0122741225498314  0.0654020381238049 0.0908694563609709 1726147344.67376
 0.163099622318163 0.0793023680900408 0.0612082513942507 0.191407425205391 1726147344.69796
   0.102457107509901   0.0755809593669387 -0.00503289892769037 0.127417700378474 1726147344.73093
  -0.17161916453033 -0.0403107275467944 -0.0242370214066359 0.177948098040148 1726147344.74637
 -0.203804827681071 -0.0572156059653076 -0.0319168577469494 0.21407643298721 1726147344.76071
 0.0654630920396837 -0.0289240488028666  0.0161332421146667 0.0733641500985131 1726147344.77552
0.0736844096545207  0.095406244760942 0.0526382078320915 0.131539061458163 1726147344.79794
  0.172938528081253   0.085642293393684 0.00459692139341155 0.19303747977773 1726147344.83217
 -0.059175473528661 -0.0497616761819505 -0.0371698001958896 0.0857878495498104 1726147344.8476
 -0.28515587313795 -0.190003964487101 -0.125964863159725 0.365078793216931 1726147344.86332
0.0368801131109937 -0.028873878796877 0.0294198656806676 0.0553115911588606 1726147344.87503
 0.198318298691235  0.146369949164703 0.0851639311954406 0.260781910398182 1726147344.8946
0.252074303936629   0.1701206820694 0.025618996541875 0.305186556317127 1726147344.93172
 -0.087608104008166 -0.0408356521794799 -0.0245089453973253 0.0997166925911513 1726147344.94792
-0.156382326008021 -0.124663467970315 0.0523328265973298 0.206724785339666 1726147344.9625
 0.0212333154350262 -0.0166424958204887  0.0161560685143718 0.0314459043651058 1726147344.97763
  0.102297454798005  0.0212045503641092 -0.0568530464732003 0.118939779332138 1726147344.99747
  0.226926921550882   0.045682352612363 -0.0806473263716755 0.245125878510736 1726147345.03404
-0.0346265521377288 -0.0322037324330303 -0.0155699347192925 0.0497845494378335 1726147345.04978
 -0.327519429997486 0.00443987190794009  0.0576557682911473 0.332585142641218 1726147345.06396
-0.0689935960271017 0.00136883077139627  0.0750016843380501 0.101917822994686 1726147345.07793
0.0470081658739276  0.104470856164031 0.0233749825916137 0.116920131960388 1726147345.09847
 0.122604119530611 0.0372792030355261 0.0021001501817299 0.128163644359959 1726147345.13292
  -0.179179359847375  -0.0319639803717153 0.000161601750741652 0.182008145838708 1726147345.1503
 -0.117470213087265 -0.0869074134509521  0.0155074068810335 0.146944306264912 1726147345.16475
  0.0392996495099223  -0.0293437331426148 -0.00616478869551161 0.0494319911191936 1726147345.17973
 0.0959548431655727  0.0218395255020031 0.00631001354067222 0.0986109176104033 1726147345.19804
  0.207875439888035  -0.022949339347362 0.00396213864528919 0.209175928891852 1726147345.23392
-0.0733952597471969 -0.0575819643050479 -0.0169710402191334 0.0948185792590553 1726147345.25179
 -0.165194337369106 -0.0409007799006856  0.0308094476582619 0.172948735064208 1726147345.26594
-0.0966563279418899  0.0101299802389298  0.0318114804312947 0.102259632886501 1726147345.27997
   0.17995666988021  0.0968331520214698 -0.0235844796179673 0.205711667252099 1726147345.29793
  0.227368401271295    0.11328652829581 -0.0251162094160099 0.255266627990051 1726147345.33212
-0.0826340328330988 -0.0379423266483026  0.0152955969588165 0.0922060671543619 1726147345.3517
-0.0993579627851065 -0.0885127081943369 -0.0185191897673041 0.134348296119973 1726147345.36594
0.0259877668347532 -0.112322554726778 0.0173824830143787 0.116592757241403 1726147345.38059
 0.112946881005548 0.0792430899402976 0.0298413378375017 0.141162922455223 1726147345.39792
   0.17914345689786  0.0832736040253772 -0.0016551522735619 0.19755913242809 1726147345.43223
-0.0899972604754845  -0.015910532769569 -0.0272083129796931 0.0953569307460379 1726147345.45213
 -0.007940635668436 -0.0130348711064786  -0.114064542262234 0.115081194645669 1726147345.4677
-0.0458277917237029 -0.0636829785239487  -0.119367796123423 0.142843897312121 1726147345.48186
 0.0869421736685409 -0.0176434783337329 0.00658508141833958 0.088958401442527 1726147345.498
  0.130772188026199 -0.0416609593106576  0.0731119873921575 0.155506795325075 1726147345.53271
-0.0587669462759085  0.0224437676548007  0.0263233710587763 0.0681923496078278 1726147345.55355
   -0.216643176424893    0.0235677100699092 -0.000745151433315768 0.217922596579761 1726147345.56791
-0.0775918372072725 -0.0765689164188589  0.0750980315426309 0.132374493405399 1726147345.58215
 0.143669122727002 0.0210334374989207 0.0270075724605315 0.14769099934789 1726147345.59789
   0.214731512391255 -0.00816173323975412  0.00479653601576207 0.214940091795512 1726147345.63063
 -0.0821692508876403 -0.00790424859958379  -0.0233217441944756 0.0857797568755738 1726147345.65377
-0.0531159462083269 -0.0429935482729094 -0.0603595136725529 0.0911757633666314 1726147345.66821
-0.000586008286257492   -0.0431845281434429   -0.0947498175433476 0.104128645440057 1726147345.68271
 0.128961699764593 -0.013641544931278 0.0329334235152488 0.133797691081423 1726147345.69706
   0.126680390113593 -0.00335738097663315   0.0708027593985399 0.145162749990492 1726147345.72798
 0.030107421698277 0.0334578101161948  0.036399783727879 0.0578863209620856 1726147345.75377
-0.0987048754662552 -0.0317644812370822 -0.0523897193135137 0.116173651913068 1726147345.76804
 -0.140668444075746 -0.0358957793497513  -0.006751798431241 0.145333082661428 1726147345.7827
0.0655561866985625 0.0314090954537085 0.0606157054570583 0.0946488702506998 1726147345.79804
0.0724718397827542  0.110825221156956 0.0601147707235336 0.145424148149915 1726147345.82263
  0.0628991651068583   0.0598233320078933 -0.00625134381846093 0.0870299679604851 1726147345.85416
-0.0729049673060776 -0.0562178568864709 -0.0454321057609568 0.102662836141823 1726147345.8697
 -0.151517758611677  -0.111002546237355 -0.0817011575122743 0.204827428790013 1726147345.88375
 0.0434486108750889 -0.0378761901062312 -0.0174585503319955 0.0602261450172023 1726147345.89802
0.0823728204402198 0.0669777313009647 0.0258326240640453 0.10926400369534 1726147345.91888
 0.155462284985931 0.0941025215941509 0.0554177022635192 0.189986653077506 1726147345.95243
-0.0563611244554111 -0.0432874061534449  -0.016712859609118 0.0730047639382919 1726147345.96858
 -0.223688928728754 -0.0383257719131609 -0.0363870522645628 0.229846947339009 1726147345.9827
 0.027315865049641 0.0442220828011505  0.024889330878017 0.0576300952822171 1726147345.99812
  0.11226496273269 0.0766763976599107 0.0476919454836706 0.144073639086026 1726147346.01683
   0.19716477767626 -0.0113862205126761  0.0313448783594015 0.199965239411899 1726147346.0525
 -0.114296706003123 -0.0802578411171038 0.00582128530359069 0.139781777877263 1726147346.06965
  -0.192571757997206   -0.101013434889484 -0.00111706548780493 0.217459982161341 1726147346.08345
-0.0804220349354001 -0.0320763510723212  0.0425788671355265 0.0964860400669979 1726147346.09794
0.0666050747065071 0.0504341275124627 0.0533833775357509 0.0991444511393716 1726147346.11552
 0.182344219301513 0.0345220641802975   0.08188445053562 0.202845385620347 1726147346.15165
0.00186368898463974  -0.038724576476696  0.0350778025941061 0.0522830603040987 1726147346.16871
-0.149126716674876  0.018676160459615 0.0370292911479352 0.154786126634981 1726147346.18367
 -0.103642338769461 -0.0156180112653312  0.0965294231271068 0.142490652994292 1726147346.19811
     0.1144576512952 -0.00693294883653093    0.177273684063316 0.211126925760226 1726147346.21584
  0.245949570004801 0.00300749812851536   0.334793727936394 0.415436007462145 1726147346.2503
  -0.1395197664909 0.0307148479746366  0.188778695642972 0.236741553294816 1726147346.26883
0.0112734344496879 -0.018365751091061  0.040489559081008 0.0458671509035024 1726147346.28362
0.0614300149094782   0.02346402192937  0.120666258424271 0.137421079092669 1726147346.29796
 0.197867914750509 0.0583362489877375  0.206220070295826 0.291687413212311 1726147346.31379
0.408003638483295 0.226016571619359 0.329913792002155 0.571308646718581 1726147346.34761
0.170271936075801 0.197788059584972 0.139871002636186 0.296102256168105 1726147346.36838
 0.134242907405982  0.111977156937441 0.0496363467163765 0.181724540940269 1726147346.3838
0.0809680818453895  0.244498391447077  0.228137910740565 0.344067144631684 1726147346.39804
0.536876648998137 0.386994091599857 0.392105995679238 0.769251633095617 1726147346.41264
0.917511906095918 0.805842738463944 0.885610449300673 1.50848151625181 1726147346.44591
0.370839514999495 0.370457760213841 0.608829368475276 0.803389132304962 1726147346.46827
  0.311589185765202 -0.0257427216893229   0.158916695583506 0.350720721573414 1726147346.48361
    0.10605725649672 -0.00956473292173297    0.307811528692337 0.325710857920623 1726147346.49797
0.533536909543882 0.128645883452864 0.396174296796492 0.676879214200879 1726147346.51357
0.469994641731043  0.24245976251863 0.884605765556211 1.0306352701862 1726147346.53955
 -0.341605423997256 -0.0137667443068123   0.964538788442018 1.02333712107123 1726147346.56793
-0.150413500991254 -0.292049178617165  0.296063644345116 0.442233677499032 1726147346.58361
-0.261501148523377 -0.347780438934401  0.203566356195946 0.480388744413672 1726147346.59783
0.0183159503657755 -0.193025147632247  0.235745591648219 0.305237883687168 1726147346.61362
-0.0541781765543727   -0.13288695583611   0.580788225542805 0.598255113455209 1726147346.63431
-0.132312078541187 -0.205804513564813   1.17021516046186 1.19551892737268 1726147346.66608
-0.0853417319380946  0.0764993201501169    0.65187075764676 0.661869202991486 1726147346.68249
-0.199172117999283  0.308889972484164  0.630126367705491 0.729480491149217 1726147346.6979
 0.19745415710246 0.341284236682668 0.808993902974869 0.899963448933136 1726147346.71361
0.359266206061234 0.408053717000695  1.21288692006962 1.32916316667732 1726147346.73339
0.439343031950708 0.436231200236242  2.04030305720589 2.13217178600293 1726147346.76464
0.0982015102670572  0.132271354381251    1.0199061684136 1.03312527806491 1726147346.78211
 -0.044868462539688 -0.0652441610823575   0.505495215089914 0.511659449208958 1726147346.79795
 0.23078794757239 0.118792231472734 0.488630712048517 0.553294355438394 1726147346.81262
0.378851773794228 0.237848345794376 0.825606212384363 0.939002726317559 1726147346.83209
0.396885604410038 0.253888018572833  1.66439477594675 1.72979399905353 1726147346.86302
0.0825610725145955  0.200723524290528   1.04158786423704 1.06396031073732 1726147346.88194
-0.0502856514128685   0.175211399646795   0.590406312726234 0.617905571597468 1726147346.89786
0.00955368775852503   0.164007520111246    0.76953625489751 0.786877237696271 1726147346.91347
 0.324894460451024 0.0800888821961846  0.943997149799409 1.00154942879151 1726147346.93073
0.329543615003015 0.164468663335502  1.90048968800339 1.9358486484268 1726147346.9623
-0.00584383850796692     0.20049874080053     1.11100230850315 1.1289641380533 1726147346.98197
-0.269782197765961  0.202582691319741  0.438356693678627 0.553153479557563 1726147346.99795
-0.150001920249263  0.163130552323126   0.51303294862104 0.558851464658108 1726147347.01358
0.0550753475173502   0.11748342930367  0.863633927308087 0.873326519958427 1726147347.03057
-0.118495730050698  0.242747746178989   1.72778480339971 1.7487732938189 1726147347.06077
-0.0834348123712234   0.144773966477126    1.07131801967756 1.08427080038651 1726147347.08109
0.0384452317928501 0.0182927706475796  0.377758270037372 0.380149933430481 1726147347.09805
-0.0245560928271519    0.16053648337659   0.442390394100027 0.471258129884074 1726147347.11281
 0.20262684491006 0.214955053247603 0.662626056947221 0.72549059576283 1726147347.12977
0.0669554052090258  0.375994661635934   1.34002791726332 1.39338789678628 1726147347.15974
-0.113268996894345  0.140445610820651  0.969447054740127 0.986094532588303 1726147347.18194
 -0.0368300740351458 -0.00242732734673485    0.482309604477735 0.483719857813334 1726147347.19812
 0.139497968975102 0.0726062748940605  0.468840259796886 0.494512430287229 1726147347.21281
0.321096683009054 0.138343810463655 0.748215000485353 0.825873947212477 1726147347.22955
