-0.0872554057254  0.0600091268805   0.552344452396 1726147318.05
-0.0930117436054  0.0704999050318   0.545049501977 1726147318.07
-0.0976999291127  0.0777269503954   0.535176206092 1726147318.1
-0.0997052605773  0.0814848307569   0.523305451024 1726147318.11
-0.0976898197293  0.0823715069307   0.510498501379 1726147318.13
-0.0908340112865   0.081505745918   0.498054411697 1726147318.15
-0.0790208423613  0.0801439038257   0.487187602237 1726147318.17
-0.0629227017537  0.0793025861568   0.478711193739 1726147318.2
-0.0439639534668  0.0794844025211   0.472808223893 1726147318.21
-0.0241537383397  0.0805693598886   0.468948121939 1726147318.23
-0.00580798571194   0.0818848641791     0.46596871456 1726147318.25
0.00879658302526    0.08241805169   0.462304129593 1726147318.26
0.0177755915119 0.0810998059111  0.456304965831 1726147318.3
0.0199295536783 0.0770787639655  0.446576815317 1726147318.31
0.0149168667452  0.069916062372  0.432261797877 1726147318.33
0.00327279214766  0.0596611979763   0.413204613209 1726147318.35
-0.0137256570312  0.0468065305248   0.389972916958 1726147318.37
-0.0343144684361  0.0321519989942   0.363732522222 1726147318.4
-0.056557225519   0.01663288409  0.336004916815 1726147318.42
-0.0786494778967 0.00116589934433   0.308356019179 1726147318.43
-0.0991494366571 -0.0134470796169   0.282079968445 1726147318.45
 -0.117093276867 -0.0265456273065    0.25794647136 1726147318.47
 -0.131984916143 -0.0375837125108   0.236069776432 1726147318.5
 -0.143683144086 -0.0460842186704   0.215930146712 1726147318.52
-0.152233856666 -0.051615202449  0.196540338706 1726147318.53
 -0.157704890945 -0.0538172700453   0.176711583332 1726147318.55
 -0.160073944343 -0.0524877370467    0.15534821144 1726147318.57
 -0.159200019001 -0.0476981275027   0.131695159527 1726147318.6
 -0.154882307186 -0.0398986205403     0.1054788634 1726147318.62
  -0.14698429511 -0.0299573588012  0.0769137982125 1726147318.63
 -0.135581249186 -0.0190982614663  0.0465845125536 1726147318.65
  -0.121081177803 -0.00873229050764   0.0152457868476 1726147318.67
  -0.104275555951 -0.00021154112137   -0.016397437429 1726147318.7
-0.0862953034668 0.00543891723805 -0.0478683812864 1726147318.72
-0.0684740852351 0.00774631903149 -0.0790105670519 1726147318.73
-0.0521468774336 0.00691343302957  -0.109978129442 1726147318.75
-0.0384296224634 0.00380035052566  -0.141138723831 1726147318.77
-0.0280315959289 -0.0002448700498  -0.172925632744 1726147318.8
 -0.0211454907349 -0.00368225242532   -0.205685045941 1726147318.82
  -0.017443622262 -0.00514662763394   -0.239560898428 1726147318.83
 -0.0161859826313 -0.00380733515068    -0.27444572304 1726147318.85
-0.0164216307887 0.00036296140456  -0.310005477828 1726147318.87
-0.0172437161903 0.00648209424941  -0.345764358303 1726147318.9
-0.0180444412132  0.0128567270635  -0.381218925201 1726147318.92
-0.0187124064287  0.0172837185749  -0.415945436055 1726147318.94
-0.0197223284741  0.0175047889141  -0.449671149451 1726147318.95
-0.0220856666784  0.0117237926471   -0.48229446621 1726147318.97
  -0.0271580695934 -0.000925762574408    -0.513852936003 1726147319
-0.0363313687462 -0.0200706525846  -0.544449107443 1726147319.02
 -0.050667395219 -0.0440229261553   -0.57415350034 1726147319.04
-0.0705504371697 -0.0699697434009  -0.602912867275 1726147319.05
 -0.095438548004 -0.0944034543161  -0.630496560911 1726147319.07
 -0.12377903142 -0.113717588442 -0.656507713627 1726147319.1
-0.153122900703 -0.124859133424 -0.680467251646 1726147319.12
-0.180433315283 -0.125913483422 -0.701954064801 1726147319.14
-0.202542352529 -0.116508200275 -0.720764312828 1726147319.15
-0.216677644469 -0.097952707689 -0.737043640575 1726147319.17
 -0.220962420893 -0.0730771108547  -0.751348975131 1726147319.2
 -0.214792989877 -0.0457871470007  -0.764610369001 1726147319.22
 -0.199016209296 -0.0204062226379  -0.777987103056 1726147319.24
   -0.175862360472 -0.000920886788533    -0.792642509109 1726147319.26
 -0.148630718005 0.00972732460432  -0.809489341766 1726147319.27
-0.121170211122 0.0101624810811 -0.828969936195 1726147319.3
 -0.0972394864942 0.000800269264158   -0.850926775814 1726147319.32
-0.0798617569787 -0.0162662465983  -0.874594481995 1726147319.34
-0.0708015278533 -0.0376928659372  -0.898715031164 1726147319.36
-0.0702756362536 -0.0595271759534  -0.921752769237 1726147319.37
 -0.076968200626 -0.0779301735104  -0.942166769735 1726147319.4
-0.0883542095435 -0.0898303522909  -0.958685875598 1726147319.43
  -0.10126395088 -0.0933899981999  -0.970530030849 1726147319.44
 -0.112559969735 -0.0882139584763  -0.977534092387 1726147319.46
 -0.119768892685 -0.0752907070341  -0.980154479235 1726147319.47
 -0.121523424203 -0.0567082187822  -0.979364843111 1726147319.5
-0.117722505222   -0.0352219126 -0.976465322498 1726147319.53
 -0.109393597055 -0.0137651257519  -0.972839863509 1726147319.54
-0.0983167621757 0.00501278089295  -0.969702152119 1726147319.56
-0.0865245276666  0.0191131956182  -0.967874404493 1726147319.58
-0.0758122871353  0.0274158410374  -0.967639888939 1726147319.6
-0.0673791138629  0.0297475416528  -0.968695457862 1726147319.63
-0.0616742501672  0.0267951422034  -0.970208490802 1726147319.64
-0.0584625443915  0.0198852350484   -0.97096322159 1726147319.66
-0.0570602224014  0.0106703376841  -0.969570276406 1726147319.68
 -0.0566494924852 0.000775644901694   -0.964707654755 1726147319.7
 -0.0565697602342 -0.00852912511277    -0.95535628428 1726147319.73
-0.0565056220789 -0.0165661493162  -0.940989803232 1726147319.75
-0.0565355201812  -0.023338791325  -0.921682889232 1726147319.76
-0.0570518738989 -0.0294453602495  -0.898118091745 1726147319.78
 -0.058597928368 -0.0358281739507  -0.871491815702 1726147319.8
-0.0616804721932 -0.0434108195003  -0.843337066624 1726147319.83
-0.0666111371913 -0.0527092250745  -0.815291241492 1726147319.85
-0.0734084127527 -0.0635154733222  -0.788845439938 1726147319.86
-0.0817674755015  -0.074742811709  -0.765119002882 1726147319.88
-0.0910854617662 -0.0844881720727  -0.744703408514 1726147319.9
 -0.100522151919 -0.0903217511144  -0.727606337391 1726147319.93
 -0.109079673941 -0.0897614835288  -0.713301709501 1726147319.95
 -0.115693353043 -0.0808439895015  -0.700866349948 1726147319.96
 -0.119331713185 -0.0626726463571  -0.689169356011 1726147319.98
 -0.119103323352 -0.0358156474381  -0.677077222157 1726147320
 -0.114363572787 -0.0024464269393  -0.663640305155 1726147320.03
-0.104810209835 0.0338353358576 -0.648230530768 1726147320.05
-0.0905559320244  0.0684987138689  -0.630608390076 1726147320.06
-0.0721693027527  0.0968171853117   -0.61091132332 1726147320.08
-0.0506788884191   0.114707508962  -0.589571918153 1726147320.1
-0.0275366398935   0.119499092334  -0.567186398824 1726147320.13
-0.0045342975179   0.110465122624  -0.544359496679 1726147320.15
0.0163363907348 0.0889931013986 -0.521554542562 1726147320.17
0.0330869964728 0.0583517917976 -0.498979972228 1726147320.18
0.0439944329039 0.0231033497723 -0.476541306486 1726147320.2
 0.0478935236732 -0.0117119287944  -0.453874672344 1726147320.23
 0.0444447976058 -0.0414463836989  -0.430454742632 1726147320.25
0.0343043881658 -0.062598355962 -0.405746912765 1726147320.27
 0.0191269360338 -0.0733126168843  -0.379362415318 1726147320.28
0.00136262250732 -0.0735535554617  -0.351179263575 1726147320.3
-0.0161404991897 -0.0649447632634  -0.321405338668 1726147320.33
 -0.030662198045 -0.0503297438201  -0.290574712787 1726147320.35
-0.0401529048655 -0.0331544016182  -0.259481286399 1726147320.37
-0.0436642289521 -0.0167980755601  -0.229065468055 1726147320.38
 -0.0415530389654 -0.00398321674287   -0.200278935972 1726147320.4
-0.0353938559715 0.00362688104655  -0.173955686855 1726147320.43
-0.0276059277131 0.00557548738555  -0.150711934618 1726147320.45
-0.0208763927092 0.00249560417279  -0.130885186186 1726147320.47
 -0.0175173166299 -0.00422029042904   -0.114509996741 1726147320.48
-0.0189150718807 -0.0128652592544  -0.101319941829 1726147320.5
-0.0252093690343 -0.0218573568774 -0.0907642735998 1726147320.53
-0.0352821528962 -0.0300648958198 -0.0820326425976 1726147320.55
  -0.04705874419 -0.0369504239737   -0.07408989678 1726147320.57
-0.0580449823214 -0.0425235444079 -0.0657320363105 1726147320.58
-0.0659647752655 -0.0471464976254 -0.0556792755351 1726147320.6
-0.0693380639176 -0.0512705311469 -0.0427180019999 1726147320.63
-0.0678566380283 -0.0551883171916 -0.0258882390952 1726147320.65
 -0.0624696606601  -0.0588709771193 -0.00469059855369 1726147320.67
-0.0551663510264 -0.0619270719008  0.0207344982477 1726147320.68
-0.0485183561038 -0.0636860601434  0.0495119494269 1726147320.7
-0.0450987122714 -0.0633787935575  0.0800686851994 1726147320.72
-0.0469153435085 -0.0603675606775   0.110320928632 1726147320.75
-0.0549824589168 -0.0543695250767   0.137991109203 1726147320.77
-0.0691105738843  -0.045619336681   0.160994496033 1726147320.78
-0.0879398408387 -0.0349275576627   0.177810809163 1726147320.8
 -0.109188727847 -0.0236098535597    0.18775499411 1726147320.82
 -0.130053593496 -0.0132863922292   0.191085524469 1726147320.85
  -0.147678699256 -0.00557951546289    0.188930300358 1726147320.87
  -0.159616944299 -0.00176621690658    0.183055296483 1726147320.88
  -0.164212180357 -0.00246307588609     0.17553502474 1726147320.9
   -0.16084951686 -0.00742631508532    0.168397761853 1726147320.92
 -0.150039419797 -0.0155319996556   0.163312215924 1726147320.95
 -0.133324927724 -0.0249611510684   0.161362896961 1726147320.97
 -0.113027619656 -0.0335607872569    0.16293822996 1726147320.98
-0.0918733549728 -0.0393007839904   0.167734998959 1726147321
-0.0725587374473 -0.0407153572608   0.174866938546 1726147321.02
-0.0573300636218 -0.0372184356199   0.183053175481 1726147321.05
-0.0476457734213 -0.0292151470587   0.190853006874 1726147321.07
-0.0439799794259 -0.0179869065036    0.19690814789 1726147321.08
  -0.045799558023 -0.00538763427492    0.200153680645 1726147321.1
-0.0517148404629 0.00656502534023   0.199964979986 1726147321.11
-0.0597710784391  0.0160998882951   0.196219045691 1726147321.15
-0.0678217269191  0.0220103199058   0.189263701896 1726147321.17
-0.0739103751557  0.0238201803559    0.17980553565 1726147321.18
-0.0765886956926  0.0217818556698    0.16874430387 1726147321.2
-0.0751138450549  0.0167321766816   0.156992996789 1726147321.21
-0.0694980802727 0.00986047544151   0.145324075524 1726147321.25
-0.0604190020017 0.00245327568508   0.134272307518 1726147321.27
 -0.0490299138121 -0.00432712400772    0.124106664775 1726147321.28
 -0.0367260746844 -0.00959229553024    0.114864382057 1726147321.3
-0.0249200614663 -0.0127917345541    0.10642542554 1726147321.31
-0.0148621235511 -0.0136995504732  0.0985986905299 1726147321.35
-0.00751861026236  -0.0123478366906   0.0911931410158 1726147321.37
-0.00350274482648 -0.00893828802819   0.0840567892339 1726147321.38
-0.00304301639455 -0.00376192638573   0.0770808087229 1726147321.4
-0.00597613569902  0.00285372244327   0.0701801359995 1726147321.41
-0.0117602831502  0.0105666456848   0.063270141895 1726147321.44
-0.019513867103 0.0190229830841 0.0562579630247 1726147321.47
-0.0280887890966  0.0278581592788  0.0490575420998 1726147321.48
-0.0361823536225  0.0367095578506  0.0416239392844 1726147321.5
-0.0424809968143   0.045241454166   0.033991436182 1726147321.51
-0.0458182902987   0.053171247314   0.026296395829 1726147321.53
-0.0453248459625  0.0602822082298  0.0187709421729 1726147321.57
-0.0405499594591  0.0664138278509  0.0117042519672 1726147321.58
-0.0315408737924  0.0714324328732 0.00537956923603 1726147321.6
  -0.018871395368   0.0751954460593 3.04289686093e-06 1726147321.61
 -0.0036157101781   0.0775273523061 -0.00435611080104 1726147321.63
  0.0127334295055   0.0782225931724 -0.00779549486152 1726147321.67
 0.0283993719158  0.0770819957592 -0.0105659680248 1726147321.68
 0.0415024153708  0.0739780797198 -0.0130108717986 1726147321.7
  0.050275768433  0.0689336823409 -0.0154675921482 1726147321.71
 0.0532991265871  0.0621903664202 -0.0181541909551 1726147321.73
 0.049722903031 0.0542404982511 -0.021071913006 1726147321.77
 0.0394461396763  0.0458018128046 -0.0239537960491 1726147321.78
 0.0232067353801  0.0377261838511 -0.0262800711223 1726147321.8
0.00254970108482  0.0308526774058 -0.0273650129919 1726147321.81
-0.0203413023807  0.0258334065562 -0.0265013146762 1726147321.83
-0.0429364642188  0.0229729388561 -0.0231315180894 1726147321.86
-0.0627355770064  0.0221235612825 -0.0170063086509 1726147321.88
 -0.0776641056976    0.022668727271 -0.00829013295231 1726147321.9
-0.0864156999872  0.0236082464526 0.00241405652294 1726147321.91
-0.0886716923532  0.0237360721546  0.0141307039983 1726147321.93
-0.0851495609407  0.0218799403102  0.0256581461047 1726147321.96
-0.0774674721269  0.0171557804754  0.0357690952437 1726147321.98
-0.0678519027527  0.0091820855694  0.0434274832994 1726147322
 -0.0587485481543 -0.00179695665705    0.047979410493 1726147322.01
-0.0524143004794 -0.0149144538342  0.0492787593584 1726147322.03
-0.0505667186716 -0.0288176957222  0.0477192703092 1726147322.06
-0.0541493352839 -0.0419149424394  0.0441635458354 1726147322.08
 -0.063242275839 -0.0526804216453  0.0397815219397 1726147322.1
-0.0771158544296 -0.0599500089665  0.0358306816913 1726147322.11
-0.0943982005404 -0.0631401938538  0.0334228241684 1726147322.13
 -0.113312665781 -0.0623391018903  0.0333250160886 1726147322.15
 -0.131938363748 -0.0582475930938  0.0358349871361 1726147322.18
  -0.14845439218 -0.0519850680031  0.0407547633864 1726147322.2
 -0.161339451951 -0.0448098091473   0.047463750361 1726147322.21
 -0.169509611658 -0.0378268416977  0.0550691270891 1726147322.23
  -0.17238700512 -0.0317588493844  0.0625939399091 1726147322.25
 -0.169901970384 -0.0268357431277  0.0691569463073 1726147322.28
 -0.162439920837 -0.0228225859919  0.0741045213246 1726147322.3
  -0.15074961963 -0.0191658980762  0.0770712013811 1726147322.31
 -0.135829708135 -0.0152073102586  0.0779666542024 1726147322.33
 -0.118806730312 -0.0103993502508  0.0769072433226 1726147322.34
  -0.100814429544 -0.00446339509537   0.0741242143405 1726147322.38
-0.0828837026801 0.00254808781741  0.0698832190585 1726147322.4
-0.0658545882232  0.0102908777176  0.0644399342582 1726147322.41
-0.0503226706995  0.0182439529412  0.0580377392333 1726147322.42
 -0.03662938276 0.0258531014708 0.0509342206534 1726147322.44
-0.0248984133039  0.0326530569282  0.0434323858107 1726147322.48
-0.0151103643707  0.0383325961373  0.0358938192011 1726147322.5
-0.00719743496311   0.0427323233734   0.0287220597996 1726147322.51
-0.00113242533382   0.0457905733353   0.0223187964991 1726147322.53
0.0030145479263 0.0474699810383 0.0170269224445 1726147322.54
0.00507013336277  0.0477009786657  0.0130794888818 1726147322.58
0.00480552060136  0.0463688586335  0.0105712396003 1726147322.6
0.00202349466556  0.0433523352374 0.00946088971251 1726147322.61
-0.00334179320412   0.0386006529321  0.00960082181179 1726147322.63
-0.0111420809701  0.0322205581005  0.0107810587037 1726147322.64
-0.0209738099548  0.0245390435002  0.0127705585364 1726147322.68
-0.0321923181258  0.0161139303534  0.0153427010535 1726147322.7
 -0.043981722018 0.00767948060771  0.0182811217478 1726147322.71
 -0.0554666542244 3.35690498578e-05   0.0213720073011 1726147322.73
  -0.065840166677 -0.00610872570483    0.024394897839 1726147322.74
-0.0744765459105  -0.010257815556  0.0271237305868 1726147322.77
-0.0810016536372 -0.0122488182301  0.0293441536827 1726147322.8
-0.0853063032769 -0.0122670507409  0.0308849056987 1726147322.81
-0.0875055520392  -0.010789344235  0.0316536926377 1726147322.83
 -0.0878621980989 -0.00845489334477   0.0316643436857 1726147322.84
-0.0867011801522 -0.0058999066717  0.0310436205757 1726147322.87
-0.0843410841284 -0.0036006267604  0.0300124460182 1726147322.9
 -0.0810605452134 -0.00176664667313   0.0288449421928 1726147322.91
  -0.0771038912668 -0.000312380246809    0.0278158799142 1726147322.93
-0.0727161371207 0.00108662817827  0.0271501049849 1726147322.94
-0.0681872067432 0.00286851319658  0.0269856868127 1726147322.97
-0.0638826273605  0.0054252293348   0.027357549156 1726147323
-0.0602433107979 0.00895118018381  0.0282025739438 1726147323.01
-0.0577474389877   0.013340735077  0.0293823921304 1726147323.03
-0.0568387698268  0.0181618187446  0.0307170827857 1726147323.04
-0.0578351039357  0.0227134471849  0.0320219450539 1726147323.06
-0.0608371868468   0.026155084391  0.0331402174059 1726147323.1
-0.0656612542389  0.0276794283239  0.0339666612425 1726147323.11
-0.0718165323258  0.0266905151613  0.0344596877512 1726147323.13
-0.0785416014026   0.022947602092   0.034642611458 1726147323.14
-0.084901813576 0.0166429692815 0.0345971770773 1726147323.16
-0.0899365155145 0.00839751809362  0.0344541253682 1726147323.2
  -0.0928319307665 -0.000821963419856    0.0343854956817 1726147323.21
 -0.093084713522 -0.0098414904548  0.0346012987595 1726147323.23
-0.0906147303137 -0.0174404617303    0.03534995622 1726147323.24
-0.0857878106892 -0.0224980727566  0.0369192576334 1726147323.26
-0.0793242260755 -0.0240973248555  0.0396339736624 1726147323.3
-0.0720965310433 -0.0215740860095  0.0438476289786 1726147323.32
 -0.064854543885 -0.0145183387022  0.0499278996744 1726147323.33
  -0.057944299172 -0.00275220236018   0.0582362974505 1726147323.34
-0.0511006326529  0.0136828596113  0.0691030391202 1726147323.36
-0.0433834415503   0.034504072861  0.0827981389613 1726147323.4
-0.0332964599523  0.0591254396875  0.0995007095796 1726147323.42
-0.0190822152876  0.0865768692622   0.119270326832 1726147323.43
0.000859888094746    0.115446306131    0.142026423858 1726147323.44
0.0275200076857  0.143893293098  0.167543070462 1726147323.46
0.060888945283 0.169770292053  0.19546628808 1726147323.5
0.0997220231559  0.190859544953  0.225358438225 1726147323.52
0.141512941633 0.205196043245 0.256768539378 1726147323.53
0.182694143986  0.21141265689 0.289318768046 1726147323.55
0.219038654828 0.209023490312   0.3227879504 1726147323.56
0.246202821397 0.198564682328 0.357166908566 1726147323.6
0.260325626385 0.181540367073 0.392663071886 1726147323.62
0.258592399968 0.160169567266 0.429644791157 1726147323.63
0.239679102017 0.136984188948 0.468535305846 1726147323.65
0.204013374247 0.114371842289 0.509683353466 1726147323.66
 0.153814074875 0.0941748011594  0.553243651043 1726147323.7
0.0928986499733 0.0774413345327  0.599094102939 1726147323.72
0.0262777417082 0.0643827122284  0.646802912603 1726147323.73
-0.0404115587763  0.0545325189339    0.69564507335 1726147323.75
-0.101554063103 0.0470518812998  0.744657885525 1726147323.76
-0.152191534982 0.0410892823685  0.792719548896 1726147323.8
-0.188554315168  0.036094671797   0.83863378295 1726147323.82
-0.208422542312 0.0320049700681  0.881208053343 1726147323.83
-0.211282483356 0.0292557039101  0.919322191431 1726147323.85
-0.198275122456 0.0286209200219  0.951992284115 1726147323.87
-0.171959262567 0.0309287287953  0.978435480754 1726147323.9
-0.135929794059 0.0367322826283  0.998134909339 1726147323.92
-0.094345480129 0.0460286264829   1.01089722886 1726147323.94
-0.0514299286088  0.0581078826025    1.01689466775 1726147323.95
-0.0110119613294   0.071584244997    1.01668694969 1726147323.97
0.0238356868587 0.0846143629445   1.01121925912 1726147324
 0.051018129719 0.0952583637483    1.0017876914 1726147324.02
0.0694842440274  0.101897308489  0.989959627653 1726147324.04
0.079146499493 0.103600770891 0.977441462019 1726147324.05
0.0806857960276   0.10034655158  0.965900759085 1726147324.07
0.0752857341939 0.0930299496094  0.956766325488 1726147324.1
0.0643460371068 0.0832530948229  0.951039689382 1726147324.12
0.0492236307024 0.0729413634989  0.949153433205 1726147324.14
0.0310430578718 0.0638790949161  0.950908090018 1726147324.15
0.0106049388204 0.0572791119344  0.955509883374 1726147324.17
-0.0115981832979  0.0534940769215   0.961713693893 1726147324.2
-0.0352725847808  0.0519437873599   0.968050210046 1726147324.22
-0.0601560686936  0.0512795645566   0.973091918129 1726147324.24
-0.0858407903232  0.0497485050958   0.975700683693 1726147324.26
-0.111634662908 0.0456714194655  0.975205003822 1726147324.27
-0.136498502731 0.0379204393081  0.971473125535 1726147324.3
-0.159077433602 0.0262810024594  0.964871163976 1726147324.32
-0.177824113178 0.0116072609914  0.956118089512 1726147324.34
  -0.191192124143 -0.00427576767051    0.946069892288 1726147324.36
 -0.197863451361 -0.0189143924638   0.935480149426 1726147324.37
  -0.19696684347 -0.0297476537967   0.924788665443 1726147324.4
 -0.188245604644 -0.0346978232976   0.913981756901 1726147324.42
 -0.172143595084 -0.0326968539746   0.902551247569 1726147324.44
 -0.149794195445 -0.0240210202909   0.889561386141 1726147324.46
 -0.122914531797 -0.0103398601929   0.873817193802 1726147324.47
-0.0936223263752  0.0055579380944   0.854112461812 1726147324.5
-0.0642026587867    0.02032959739   0.829518837328 1726147324.53
-0.0368559233242  0.0308320066412    0.79966212473 1726147324.54
-0.013457522783 0.0349056501939  0.764924528794 1726147324.56
0.00464314777938  0.0320035246832   0.726516367474 1726147324.57
0.0167598235341 0.0234954425841  0.686377595356 1726147324.6
0.0229208466096 0.0125393551742  0.646896741883 1726147324.63
 0.0238189271794 0.00350809270704   0.610472085871 1726147324.64
 0.0206556442549 0.00106959838548      0.578984107 1726147324.66
0.0148977715115 0.0091124628643  0.553288549788 1726147324.68
0.00798699470535  0.0297598964309   0.532858251967 1726147324.7
0.0010640769485 0.0627080373815  0.515685241369 1726147324.73
-0.00522616033544      0.1050578461    0.498502514671 1726147324.75
-0.0107964414459   0.151699264806   0.477312204418 1726147324.76
-0.0160237773489   0.196179807807   0.448134172771 1726147324.78
-0.0215206845245   0.231879531059   0.407833258323 1726147324.8
-0.0278292921967   0.253247121281   0.354854645183 1726147324.83
-0.0351224345086   0.256841485539   0.289701231438 1726147324.85
-0.0429996689129   0.241968529365   0.215027480151 1726147324.86
-0.0504457149898    0.21079031585   0.135297748749 1726147324.88
-0.0559785214465   0.167892986774   0.056050520303 1726147324.9
-0.0579639550738   0.119408354221 -0.0170978923445 1726147324.93
-0.0550265220326  0.0718715331329 -0.0795089116626 1726147324.95
-0.0464529823774  0.0310472527663  -0.128410398357 1726147324.96
 -0.0324780287127 0.000960529118381    -0.16341929581 1726147324.98
-0.0143630731701 -0.0166786926071  -0.186574932394 1726147325
0.00577226081257 -0.0225544764127  -0.201868989009 1726147325.03
0.0253424025253 -0.019335177925 -0.214374451075 1726147325.05
 0.0418262620009 -0.0108909749976  -0.229168697752 1726147325.06
  0.0533080271205 -0.00133436291529   -0.250290468093 1726147325.08
 0.0588909818351 0.00588908426366  -0.279956346737 1726147325.1
0.0588739064537 0.0086562240292 -0.318196399304 1726147325.13
 0.0546368866949 0.00643609980343  -0.362970589182 1726147325.15
  0.0482564497754 0.000141073266226    -0.41072243743 1726147325.16
  0.0419394151038 -0.00837182996101   -0.457236059363 1726147325.18
 0.0374117590022 -0.0169998676371  -0.498603032869 1726147325.2
  0.035410872842 -0.0241021356427  -0.532086619371 1726147325.23
 0.0354052348967 -0.0290291687231  -0.556697392001 1726147325.25
  0.035613206037 -0.0323389936484  -0.573362876548 1726147325.26
 0.0333264393329 -0.0356481379426   -0.58466928242 1726147325.28
  0.025477745379 -0.0411614319885  -0.594250880475 1726147325.3
0.00934037274685 -0.0510061219792  -0.605976538107 1726147325.33
-0.0167849794308  -0.066543825875  -0.623117790248 1726147325.35
-0.0530411513642 -0.0878384268047  -0.647676531627 1726147325.37
-0.0977611987739  -0.113420284384  -0.680009436854 1726147325.38
-0.147555378767 -0.140417076986 -0.718819578855 1726147325.4
-0.197736244714 -0.165035224847  -0.76150468547 1726147325.43
-0.243013264941 -0.183292790018 -0.804772489724 1726147325.45
 -0.27833551217 -0.191844382984 -0.845376615573 1726147325.47
-0.299730911846 -0.188715074439 -0.880806413888 1726147325.48
-0.304988191956 -0.173778462652 -0.909783598795 1726147325.5
-0.294053757685 -0.148868641514 -0.932468218771 1726147325.53
-0.269066420798 -0.117494017202 -0.950342889098 1726147325.55
  -0.23401939898 -0.0842059169164   -0.96581441661 1726147325.57
 -0.194108223882 -0.0537489403016  -0.981632533076 1726147325.58
   -0.1548809826 -0.0301670964422   -1.00026133018 1726147325.6
 -0.121342380511 -0.0160494650781    -1.0233391374 1726147325.62
-0.0971697980004 -0.0120697381374   -1.05132899439 1726147325.65
-0.0841780622263 -0.0169132042972   -1.08341068517 1726147325.67
-0.0821247959896 -0.0276063253318   -1.11761608558 1726147325.68
-0.0888876364241 -0.0401832596284   -1.15117235729 1726147325.7
 -0.100978026817 -0.0505544319131   -1.18099055839 1726147325.72
  -0.11429445872 -0.0553968999124   -1.20421633361 1726147325.75
 -0.124971598954 -0.0528754001476   -1.21874655886 1726147325.77
 -0.130159754691 -0.0430326115551   -1.22361752048 1726147325.78
 -0.128577832226 -0.0277547093198    -1.2191887436 1726147325.8
 -0.120723987628 -0.0103104924459   -1.20707757462 1726147325.82
-0.108696380373 0.0054415874834  -1.18983832209 1726147325.85
-0.0956585956141  0.0160065244032   -1.17042616662 1726147325.87
-0.0850613251825  0.0191524395074   -1.15153922024 1726147325.88
-0.0797848112003  0.0145475291438   -1.13497945546 1726147325.9
-0.0813830708026 0.00397545208674   -1.12119068857 1726147325.92
 -0.0895889730607 -0.00894204340484    -1.10910055619 1726147325.95
 -0.102186214009 -0.0194794824283   -1.09631811713 1726147325.97
 -0.115283355296 -0.0228600797751   -1.07964750218 1726147325.98
 -0.123951155219 -0.0154108656981   -1.05580316329 1726147326
 -0.123120225851 0.00442748188052   -1.02217099236 1726147326.02
-0.108590135122 0.0354656615267  -0.97745292319 1726147326.05
-0.077977416662 0.0736686661288 -0.922057204666 1726147326.07
-0.0314298808957   0.112657020098  -0.858150417039 1726147326.08
0.0280405843252   0.14474684886 -0.789362904389 1726147326.1
0.0947033702703  0.162355048335 -0.720216368381 1726147326.12
 0.160753491194   0.15951086727 -0.655395558123 1726147326.15
 0.217384695971  0.133178958868 -0.599001892589 1726147326.17
 0.256132655195 0.0841212614041 -0.553911877509 1726147326.18
 0.270264830961 0.0171027844791 -0.521333758695 1726147326.2
   0.25596975398 -0.0596359312331  -0.500622892252 1726147326.21
 0.213123080785 -0.135582053077 -0.489380603466 1726147326.25
0.145478206976 -0.19964361972 -0.48382153342 1726147326.27
0.0602329348731 -0.242046214818 -0.479354956214 1726147326.28
-0.0329601344116  -0.256090391908  -0.471294297759 1726147326.3
 -0.12336916129 -0.239428191489 -0.455590758312 1726147326.31
-0.200708789981 -0.194583847905 -0.429480929674 1726147326.35
-0.256564538962 -0.128575009361 -0.391943717809 1726147326.37
 -0.285495979385 -0.0516697855154  -0.343881692925 1726147326.38
-0.285664309398 0.0244937649241 -0.287980207593 1726147326.4
-0.258913041079 0.0890446659637 -0.228252779365 1726147326.41
-0.210317778509  0.133821813805 -0.169343505265 1726147326.44
 -0.14730180325  0.154713559933 -0.115711798437 1726147326.47
-0.0784777493065   0.152130477575 -0.0708571753036 1726147326.48
-0.0124109059024   0.130554788567  -0.036742099898 1726147326.5
 0.0435012700177  0.0973190968538 -0.0135351814144 1726147326.51
  0.0838756235241     0.06092350527 0.000270287777762 1726147326.54
  0.105820240964  0.0292714026397 0.00739253558416 1726147326.57
   0.10901768657 0.00818532714264  0.0110640579675 1726147326.58
  0.0954544568246 0.000472531109912   0.0142689562835 1726147326.6
 0.0688822571867 0.00567455002263  0.0190979611604 1726147326.61
0.0341198026666 0.0204887230883 0.0263735945414 1726147326.63
-0.00369343133695    0.039721258743   0.0356288789888 1726147326.67
-0.0397913879459   0.057542235229  0.0454322663229 1726147326.68
-0.070341928884  0.068774111282  0.053961442448 1726147326.7
-0.0928140996066  0.0699585991979  0.0596629281211 1726147326.71
 -0.10611870021 0.0600059535081 0.0618117836092 1726147326.73
 -0.11052052715 0.0403232911907 0.0608141094531 1726147326.77
-0.107356434693 0.0144266745416 0.0581674416851 1726147326.78
-0.0986260623347 -0.0128556768244  0.0560900600805 1726147326.8
-0.0865423449818 -0.0364050053866  0.0569221755047 1726147326.81
 -0.073130338558 -0.0518389363161  0.0624642832251 1726147326.83
-0.0599450554174 -0.0563360507205  0.0734342145485 1726147326.86
-0.0479469053541 -0.0491053735371  0.0891912195641 1726147326.88
-0.0375348551683 -0.0314320127962   0.107802725151 1726147326.9
 -0.0287013532175 -0.00632275292432    0.126437707943 1726147326.91
-0.0212478893442  0.0221452591773    0.14198546294 1726147326.93
-0.0149920488612  0.0496204280535   0.151743337395 1726147326.96
-0.00990768053595   0.0722531150593     0.15400583952 1726147326.98
-0.00616522783997   0.0873105490718    0.148420848955 1726147327
-0.00407131502268   0.0935336291756    0.136043593735 1726147327.01
-0.00393660106188   0.0911950365278    0.119094731505 1726147327.03
-0.00592157080705    0.081874197242    0.100494261257 1726147327.06
-0.00991636751126   0.0680133171639   0.0832837847566 1726147327.08
-0.0155006865722  0.0523543629256  0.0700610153276 1726147327.1
-0.0220048894439  0.0373747970844  0.0625355044875 1726147327.11
-0.0286606191335  0.0248365073828  0.0612807618275 1726147327.13
-0.0347986228327  0.0155366204277  0.0657140781913 1726147327.16
-0.0400332620274  0.0093037979209  0.0742901850159 1726147327.18
-0.0443732393047 0.00522726525816  0.0848564336521 1726147327.2
-0.0482165273427 0.00205075046687  0.0950917777129 1726147327.21
 -0.0522193947502 -0.00137606066778    0.102942849139 1726147327.23
 -0.0570664362733 -0.00570862255894    0.106977706447 1726147327.25
 -0.063200588498 -0.0108828160431   0.106598468561 1726147327.28
-0.0705895623437 -0.0161113008053   0.102083527567 1726147327.3
-0.0786015723981 -0.0200988404065  0.0944630591717 1726147327.31
-0.0860385263635  -0.021416786307  0.0852622627008 1726147327.33
-0.0913356583775 -0.0189350729285  0.0761693507091 1726147327.35
-0.0928937861805 -0.0121947040686  0.0686954635091 1726147327.38
 -0.0894745494486 -0.00161902097913    0.063890130277 1726147327.4
-0.0805677326361  0.0114955726086  0.0621607960051 1726147327.41
-0.0666376952839  0.0252105605715   0.063222841308 1726147327.43
-0.0491754005762   0.037341211788  0.0661825729032 1726147327.45
-0.0305225257435   0.045919161871  0.0697338672756 1726147327.48
-0.0134876804123   0.049608889797  0.0724316216581 1726147327.5
-0.00082849516593   0.0479801566291   0.0729926976161 1726147327.51
0.00528851469481  0.0415768486862  0.0705685574456 1726147327.53
 0.003727793623 0.0317730470182 0.0649352505723 1726147327.55
-0.00537761479918   0.0204562500833   0.0565580252329 1726147327.58
-0.0206458575298 0.00961426241944  0.0465101042569 1726147327.6
 -0.0397178890829 0.000919596004053   0.0362552504016 1726147327.61
 -0.0597162496446 -0.00459835489665   0.0273355539711 1726147327.63
-0.0777850278085 -0.0067252151308  0.0210314589796 1726147327.64
 -0.0915924621177 -0.00604509239333   0.0180726871441 1726147327.68
 -0.0996954147591 -0.00374548463741   0.0184712652961 1726147327.7
  -0.101704935488 -0.00129421736076   0.0215210507501 1726147327.71
  -0.0982408723786 -6.84090758978e-05    0.0259678969066 1726147327.73
 -0.0907082041942 -0.00102516049037   0.0303117716509 1726147327.74
 -0.0809597330545 -0.00449008819325   0.0331687394864 1726147327.78
-0.0709242403531 -0.0101067513066   0.033605575191 1726147327.8
 -0.062274621342 -0.0169475042491  0.0313661690969 1726147327.81
-0.0561891977165 -0.0237466167065  0.0269346575676 1726147327.83
-0.0532286611467 -0.0291898133965  0.0214190889308 1726147327.84
-0.0533218779686 -0.0321864499418  0.0162823481995 1726147327.87
-0.0558360873706 -0.0320621648013  0.0129837384311 1726147327.9
-0.0597046325318 -0.0286370295792  0.0126159825147 1726147327.91
-0.0635938391062 -0.0221887109414  0.0156233151501 1726147327.93
-0.0661002813428 -0.0133313271976  0.0216670726239 1726147327.94
 -0.0659713100306 -0.00285894920447   0.0296709291162 1726147327.97
-0.0623318385643 0.00839687960838   0.038036718813 1726147328
-0.0548829547952  0.0196621150639   0.044982551231 1726147328.01
-0.0440228940024  0.0302591680149  0.0489262179725 1726147328.03
-0.0308400769658  0.0396053410272  0.0488257296638 1726147328.04
-0.0169490534252  0.0472000948574  0.0443989045634 1726147328.07
-0.00418146854023   0.0526294211269   0.0361735683571 1726147328.1
0.00580739436637  0.0556012040097  0.0253614839813 1726147328.11
0.0119195862615 0.0560049973437 0.0135911903055 1726147328.13
  0.013877996277  0.0539726264902 0.00256639445715 1726147328.14
  0.012292944512  0.0499097759955 -0.0062696772678 1726147328.17
0.00850431168714  0.0444753742688  -0.011989342846 1726147328.2
0.00423399199202  0.0385018082393 -0.0143030339468 1726147328.21
0.00113767215734  0.0328681480652 -0.0135314361227 1726147328.23
0.000374960811906   0.0283537195176  -0.0104465651899 1726147328.24
 0.00231320641372   0.0255058097125 -0.00603260905507 1726147328.26
0.00644316077717  0.0245516106362 -0.0012346999808 1726147328.3
 0.0115248582921  0.0253724454455 0.00323768216624 1726147328.31
 0.0159181791624   0.027541952194 0.00700558374066 1726147328.33
 0.0180039119189  0.0304143078327 0.00999873368911 1726147328.34
 0.016581037798 0.0332382951163 0.0123376481367 1726147328.36
0.0111382729499 0.0352706319695 0.0141694353404 1726147328.4
0.00193757940924   0.035867514068  0.0155205548126 1726147328.42
-0.0100973780245   0.034544421434  0.0162227668365 1726147328.43
-0.0236402000323  0.0310068313594  0.0159427020559 1726147328.45
-0.0372834112881   0.025163696031  0.0143093693059 1726147328.46
-0.0498300889513  0.0171372932006  0.0110994673046 1726147328.5
-0.0604844351792 0.00727610846439 0.00641827855553 1726147328.52
 -0.0689106728421 -0.00383514817311 0.000810408994081 1726147328.53
 -0.0751721926168  -0.0153856915944 -0.00474924390258 1726147328.54
  -0.079593616638  -0.0263893534442 -0.00900164231575 1726147328.56
 -0.082600836027 -0.0357875796303 -0.0106635010878 1726147328.59
 -0.0845885838852  -0.0425988960757 -0.00873972191681 1726147328.62
 -0.0858463063187  -0.0460896756956 -0.00280476763089 1726147328.63
-0.0865478182818 -0.0459277102593 0.00682863063208 1726147328.65
-0.0867867898227 -0.0422774865236   0.019107674003 1726147328.66
 -0.086626521262 -0.0358050732865  0.0324141555313 1726147328.7
-0.0861331292277 -0.0275792338237  0.0448770086995 1726147328.72
-0.0853744927575 -0.0188799633222  0.0547470279788 1726147328.73
-0.0843862495142 -0.0109504824484  0.0607421809889 1726147328.75
-0.0831225442594 -0.0047468994714  0.0622810827312 1726147328.76
  -0.0814171824323 -0.000745095481554    0.0595530498566 1726147328.8
-0.0789782891705 0.00114601885207  0.0534164695238 1726147328.82
-0.0754282003514 0.00154008723867   0.045160590116 1726147328.83
-0.0703847071536 0.00140522678258  0.0361975307188 1726147328.85
-0.0635659229109 0.00181142960895  0.0277637565331 1726147328.86
-0.0548937559301 0.00365475594344  0.0207017181231 1726147328.9
-0.0445714808458 0.00742561435069  0.0153663790162 1726147328.92
-0.0331167127762  0.0130762314801  0.0116654079143 1726147328.93
 -0.021338624756  0.0200160186717 0.00920558961729 1726147328.95
 -0.010255948515  0.0272316145734 0.00749147595197 1726147328.97
-0.000961271488336    0.0335004987896   0.00611295103305 1726147329
0.00555123500858  0.0376496576188 0.00486849211339 1726147329.02
0.00856469451825  0.0388053932757  0.0037963194471 1726147329.04
0.00778593077385  0.0365850054386 0.00311719693154 1726147329.05
 0.0034206559908  0.0311928649312 0.00311969281013 1726147329.07
-0.00384868410413   0.0234003147761  0.00403290508573 1726147329.1
-0.0129857121848  0.0144095327719 0.00592969118599 1726147329.12
-0.0228000530078 0.00562406207796 0.00868771354433 1726147329.14
 -0.0321780825834 -0.00163032986612   0.0120129671714 1726147329.15
 -0.0402868250421 -0.00637643689084   0.0155095499523 1726147329.17
 -0.0466982109646 -0.00818731739898   0.0187675212185 1726147329.2
  -0.051402255191 -0.00727018712021   0.0214408348153 1726147329.22
  -0.054710104037 -0.00440942620829   0.0232973261728 1726147329.24
  -0.0570813371079 -0.000779113240432    0.0242365345803 1726147329.25
-0.0589332583484 0.00233233502002  0.0242822243773 1726147329.27
-0.0604951020657 0.00382122553067  0.0235610728118 1726147329.3
-0.0617548041972 0.00302193953234  0.0222772703469 1726147329.32
  -0.0625142253587 -0.000143007458414    0.0206875539466 1726147329.34
 -0.0625298221049 -0.00514882505419    0.019075832058 1726147329.36
-0.0616826311158 -0.0109913289425  0.0177235832367 1726147329.37
-0.0601069961516  -0.016417086101  0.0168729244939 1726147329.4
 -0.058219483129 -0.0202075788347  0.0166836339892 1726147329.43
-0.0566256637011 -0.0214530897281  0.0171918894912 1726147329.44
-0.0559299490903  -0.019755600898  0.0182840166279 1726147329.46
 -0.056513708923 -0.0153169482299  0.0196997109698 1726147329.47
 -0.0583632971056 -0.00889456376187   0.0210738970901 1726147329.5
 -0.0610155197043 -0.00163657793332    0.022015186808 1726147329.53
-0.0636484661017 0.00516537010887  0.0222052861805 1726147329.54
-0.0652948788108  0.0103493406225  0.0214929698689 1726147329.56
-0.0651119065593  0.0131211469184  0.0199533670939 1726147329.57
-0.0626212452464   0.013205786293  0.0178906332465 1726147329.6
-0.057844672465 0.0108827619636 0.0157779521655 1726147329.63
-0.0512970785805 0.00690404728408  0.0141479501284 1726147329.64
-0.0438473087129 0.00232011757823  0.0134622718559 1726147329.66
 -0.0364980443035 -0.00174225549597   0.0139959090447 1726147329.67
 -0.0301558065073 -0.00430054135654   0.0157678718539 1726147329.7
 -0.0254567196495 -0.00469110790529   0.0185365898832 1726147329.73
 -0.0226880895606 -0.00266833815921    0.021860243085 1726147329.75
-0.0218110673082 0.00158244021443  0.0252043749312 1726147329.76
-0.0225579420774  0.0075099095495  0.0280667168276 1726147329.78
-0.0245587433078  0.0143164852573  0.0300857618997 1726147329.8
-0.027450489302 0.0211021609073 0.0311061595629 1726147329.83
-0.0309369476236   0.027002958718  0.0311879783486 1726147329.85
-0.0347903157684  0.0313029876433  0.0305632436053 1726147329.86
-0.0388098512238  0.0335111462396  0.0295565144852 1726147329.88
-0.0427685127276  0.0334040356555  0.0284932528347 1726147329.9
-0.0463825112749  0.0310416926229  0.0276198272376 1726147329.93
-0.0493290864473  0.0267611844205  0.0270536099062 1726147329.95
-0.0513173170309  0.0211472728428  0.0267728073646 1726147329.96
-0.0521921265286  0.0149741576153  0.0266454816802 1726147329.98
-0.0520327865624 0.00911274735919  0.0264877342582 1726147330
-0.0512030241907 0.00440596860431  0.0261341328305 1726147330.03
-0.0503229564196 0.00152760115128  0.0255004586281 1726147330.05
 -0.0501581537941 0.000851899152767   0.0246203229512 1726147330.06
-0.0514481572414  0.0023658273414  0.0236433287556 1726147330.08
-0.0547165491453 0.00565041062314  0.0227929029181 1726147330.1
-0.0601120747943 0.00994382335394  0.0222949034162 1726147330.13
-0.0673240969301  0.0142804469347   0.022299585682 1726147330.15
-0.075597509636 0.0176819435215 0.0228243079129 1726147330.16
-0.0838467541878  0.0193626658819  0.0237390650961 1726147330.18
-0.0908432321405  0.0189056247036  0.0248025607088 1726147330.2
-0.0954331852289  0.0163684652358  0.0257384269977 1726147330.23
-0.0967387059011  0.0122913198216  0.0263264547837 1726147330.25
-0.0943022933327 0.00759803344869  0.0264777296639 1726147330.27
  -0.08815079871 0.00340571220553  0.0262672538496 1726147330.28
 -0.0787728202882 0.000780275755172   0.0259111488804 1726147330.3
 -0.0670212280158 0.000492145268901   0.0256934421295 1726147330.33
 -0.053966963101 0.00283069162623   0.025864099586 1726147330.35
-0.0407386503897 0.00752509926366  0.0265401303289 1726147330.37
-0.0283822105695  0.0137941152055  0.0276420083732 1726147330.38
-0.0177651478223  0.0205143879121  0.0288881537624 1726147330.4
-0.00953439840773   0.0264664174728   0.0298535702208 1726147330.43
-0.00411966753813   0.0305972834956   0.0300795929788 1726147330.45
-0.00176138519231   0.0322352045516   0.0292052775167 1726147330.47
-0.00253789611199   0.0312030941573   0.0270821010655 1726147330.48
-0.00637227058777   0.0278035983483    0.023835832189 1726147330.5
-0.0130139056892  0.0226811675418  0.0198533411372 1726147330.53
-0.0220084597603  0.0166002351013  0.0156944571518 1726147330.55
-0.0326832982265  0.0102040866662  0.0119527586348 1726147330.57
-0.0441771849987 0.00382838948795 0.00910626435773 1726147330.58
 -0.0555303571418 -0.00256854309367  0.00740344471735 1726147330.6
 -0.0658289327634 -0.00932911909769  0.00682036191525 1726147330.63
-0.0743744247339 -0.0168888229601 0.00710427072733 1726147330.65
-0.0808332404175 -0.0254968674627 0.00789382068041 1726147330.67
-0.0853174386021 -0.0349527829397 0.00888296831131 1726147330.68
-0.0883581462132 -0.0444491572708 0.00998067181004 1726147330.7
-0.0907559182999 -0.0525856986698  0.0114152718768 1726147330.72
-0.0933248786304  -0.057574139105  0.0137426485026 1726147330.75
-0.0965835703573 -0.0576004075807  0.0177395723972 1726147330.77
 -0.100475133682 -0.0512648028124  0.0241940335431 1726147330.78
 -0.104210642306 -0.0379945685597  0.0336359723082 1726147330.8
 -0.106312557762 -0.0183224705747  0.0460763566669 1726147330.82
 -0.104888494203 0.00605082885537  0.0608317314432 1726147330.85
-0.0980979575795  0.0324495624277    0.07649976614 1726147330.87
-0.0847056294912  0.0576565230174  0.0911190108112 1726147330.88
-0.0645682422437  0.0785200086675   0.102500182917 1726147330.9
-0.0388986318975  0.0926229120706   0.108669805626 1726147330.92
-0.0101975989008  0.0988780845295   0.108334096121 1726147330.95
0.0181692230588  0.097915250581  0.101261319226 1726147330.97
0.0426725251514 0.0921546805469 0.0884959263103 1726147330.98
0.0604395545017  0.085518156206 0.0723517265811 1726147331
0.0699938177812 0.0827984437937 0.0561743128089 1726147331.02
0.0717248351884 0.0887799770894 0.0439054663091 1726147331.05
0.0679550541695  0.107260536103 0.0395173211064 1726147331.07
0.0625591943379  0.140154236369 0.0464073733154 1726147331.08
0.0601903571441   0.18685346896 0.0668543732925 1726147331.1
0.0652550621048  0.243991316735  0.101628231737 1726147331.12
0.0808377723665  0.305682275065  0.149824475778 1726147331.15
0.107794397412 0.364238312936 0.208958455606 1726147331.17
0.144212236719 0.411272173234 0.275312331561 1726147331.18
0.185375064631 0.439023144953  0.34448626755 1726147331.2
0.224284076176 0.441684634262 0.412070974108 1726147331.21
0.252679975101 0.416490226133 0.474336638624 1726147331.24
0.262406766365  0.36433737827 0.528826319872 1726147331.27
0.246877033285  0.28980108327 0.574751416696 1726147331.28
0.202363089051  0.20050537938 0.613112361001 1726147331.3
0.128859705751 0.105953068477 0.646506832408 1726147331.31
0.0303391829409 0.0160284707794  0.678636934254 1726147331.34
-0.0856668805911 -0.0605454250681   0.713581484759 1726147331.37
-0.209095061148  -0.11750899148  0.754952892198 1726147331.38
-0.328802537511  -0.15189299211  0.805097702739 1726147331.4
-0.434174833022 -0.164230912729  0.864509346014 1726147331.41
-0.516589774277 -0.158134812648  0.931588525795 1726147331.44
-0.570475121261 -0.139334562192    1.0028137292 1726147331.47
-0.593793268111 -0.114384702254   1.07329184466 1726147331.48
 -0.587917236555 -0.0893089413456    1.13757519002 1726147331.5
 -0.556991953815 -0.0684626359839    1.19057790513 1726147331.51
 -0.506968914351 -0.0538427400762    1.22840960865 1726147331.54
 -0.444540303998 -0.0449722082035    1.24896606337 1726147331.57
 -0.376179838118 -0.0393551645061     1.2521707684 1726147331.58
 -0.307437178341 -0.0333712152774    1.23983919602 1726147331.6
 -0.242552973791 -0.0233819920511     1.2152211089 1726147331.61
   -0.18438338994 -0.00678201567344     1.18234160447 1726147331.63
-0.134562387714 0.0172518952728   1.14528958409 1726147331.66
-0.0937965323987  0.0474790731219    1.10759188655 1726147331.68
-0.0621835250199  0.0808309599259     1.0717761744 1726147331.7
-0.0394681343029   0.113089839103    1.03918107255 1726147331.71
-0.0251884841262   0.139835206641    1.01002458407 1726147331.73
-0.0187094405421     0.1574299343    0.98369277451 1726147331.76
-0.0191762412092   0.163821944496   0.959166201805 1726147331.78
-0.0254422353504   0.158989987297   0.935474354982 1726147331.8
-0.0360269014744   0.144947228762   0.912068689181 1726147331.81
-0.0491467866181   0.125313396574   0.889031492846 1726147331.83
-0.0628385641848   0.104555783612   0.867080211374 1726147331.86
-0.0751665617839    0.08706479032   0.847374267952 1726147331.88
-0.0844823960595  0.0762587522332   0.831177303698 1726147331.9
-0.089686326734 0.0739007413054  0.819465225937 1726147331.91
-0.0904326187629  0.0797611332601    0.81258820933 1726147331.93
-0.0872272318415  0.0916860551392   0.810082256195 1726147331.96
-0.0813849783409   0.106049419081   0.810683521526 1726147331.98
-0.0748403238258   0.118491411792   0.812541034589 1726147332
-0.0698343911953   0.124793166314    0.81357111422 1726147332.01
-0.0685244984928   0.121715804152   0.811864149377 1726147332.03
-0.0725785083825   0.107645390966   0.806046144621 1726147332.06
-0.0828232303048  0.0829288317499   0.795512447666 1726147332.08
-0.0990130785224  0.0498480362941   0.780485984442 1726147332.1
-0.119770758407 0.0122471011502  0.761899311986 1726147332.11
 -0.142725790003 -0.0251123645068   0.741144605055 1726147332.13
 -0.164842325595 -0.0573482652554   0.719762746519 1726147332.16
 -0.182891518242 -0.0802654682051   0.699144867567 1726147332.18
 -0.193993366606 -0.0910340480316   0.680302495689 1726147332.2
 -0.196134656247 -0.0886243939457   0.663737787198 1726147332.21
 -0.188566753822 -0.0739286997865   0.649421623332 1726147332.23
 -0.172000729544 -0.0495515127933   0.636866786239 1726147332.26
 -0.148546921765 -0.0193069170596   0.625266743753 1726147332.28
-0.121388467103 0.0124903722441  0.613661390983 1726147332.3
-0.0942270027759  0.0418151431997   0.601093402117 1726147332.31
-0.0705846890193   0.065659982397   0.586731337656 1726147332.33
-0.0530810514535  0.0825653160185   0.569951079118 1726147332.35
-0.0428196678134  0.0928467941071   0.550378166593 1726147332.38
-0.0390150661378  0.0984674958416   0.527898346124 1726147332.4
-0.0389626532688   0.102565005398   0.502644894949 1726147332.41
-0.0384036703983   0.108707066135   0.474971197982 1726147332.43
-0.0322659065765   0.120005422641   0.445414549072 1726147332.45
-0.0156780266201   0.138256453565   0.414651489356 1726147332.48
0.0149231109238  0.163289211368  0.383439873282 1726147332.5
0.0608257606074  0.192677947174  0.352544571277 1726147332.51
0.120457411584 0.221915034801 0.322654224743 1726147332.53
0.189366598622 0.245049999859 0.294309387462 1726147332.55
0.260847309884  0.25570011456 0.267867376856 1726147332.58
0.327130487306 0.248251843558 0.243520515224 1726147332.6
0.380915516417 0.219021766634 0.221365300958 1726147332.61
0.416906629424 0.167142813702 0.201499011355 1726147332.63
 0.432992255463 0.0949872531242  0.184105349927 1726147332.65
  0.430774792132 0.00802186681539    0.16948692752 1726147332.68
   0.41530891335 -0.0859033670739   0.158012385631 1726147332.7
 0.394095993455 -0.177722588122  0.149970597451 1726147332.71
0.375555317718 -0.25857287918   0.1453595867 1726147332.73
 0.367301779367 -0.321199632935  0.143672531062 1726147332.75
  0.37458174047 -0.361073723263  0.143762174851 1726147332.78
 0.399160916301 -0.376997474071  0.143856065325 1726147332.8
 0.438849484952 -0.371085348902  0.141756373127 1726147332.81
 0.487724290876 -0.348146936125  0.135200108219 1726147332.83
 0.536991782996 -0.314634800086  0.122297649213 1726147332.85
 0.576341856999 -0.277408970244  0.101931135464 1726147332.87
 0.595577791832 -0.242590217664 0.0739952461285 1726147332.9
 0.586273895712 -0.214725705615  0.039404738958 1726147332.91
